3159  3167  3176  3185  3193  3202  3210  3210  3219  3228  3246  3255  3273  3291  3309  3328  3347  3366  3385  3405  3425  3434  3455  3475  3475  3485  3495  3495  3495  3495  3495  3485  3485  3475  3475  3465  3465  3465  3465  3475  3475  3475  3485  3495  3506  3527  3537  3548  3569  3591  3613  3635  3669  3692  3715  3739  3775  3787  3811  3836  3848  3886  3912  3938  3991  4074  4145     0     0  4312  4344  4360  4376  4376  4392  4408  4442  4442  4458  4492  4509  4544  4562  4562  4597  4633  4651  4670  4688  4688  4707  4726  4726  4726  4726  4726  4745  4745  4745  4745  4764  4764  4783  4764  4764  4764  4764  4764  4764  4615     0     0     0     0  3093  3093  3085  3085  3085  3085  3085  3093  3085  3093  3101  3109  3117  3126  3117  3117  3109  3101  3101  3085  3077  3061  3061  3061  3069  3077  3085  3101  3117  3134  3159  3185  3210  3237  3255  3273  3282  3300     0     0     0     0     0     0     0     0     0     0     0     0     0     0     0     0     0     0     0     0     0     0     0     0     0     0     0     0     0     0     0     0     0     0     0     0     0     0     0     0   771   772   768   765   762   760   759   757   754   753   751   751   750   749   748   748   748   748   749   749   749   750   751   752   753   753   754   755   757   759   762   764   767   770   774   777   781   784   787   791   795   798   801   805   810   813   816   819   822     0     0  2704  2704  2704  2710  2710  2710  2716  2716  2716  2716  2722  2722  2716  2722  2722  2722  2729  2729  2729  2729  2729  2735  2748  2773  2793  2820  2826  2840  2861     0     0  6122  6122  6090  6090  6028  5997  5937  5878  5820  5763  5708  5653  5599  5599  5573  5573  5547  5547  5547  5521  5521  5495  5495  5470  5470  5445  5445  5445  5445  5445  5445  5445  5445  5445  5445  5445  5445  5445  5445  5420  5420  5395  5395  5420  5420  5420  5420  5420  5420  5420  5445  5445  5445  5445  5445  5445  5445  5420  5420  5395  5370  5370  5346  5346  5322  5322  5322  5298  5274  5274  5274  5274  5274  5274  5274  5298  5298  5298  5298  5274  5274  5251  5251  5228  5228  5228  5228  5228  5228  5205  5205  5205  5205  5205  5205  5205  5205  5228  5228  5251  5251  5274  5274  5274  5274  5251  5251  5251  5228  5228  5228  5205  5205  5182  5182  5182  5159  5137  5137  5137  5115  5115  5115  5115  5115  5115  5115  5137  5137  5137  5159  5159  5159  5137  5137  5115  5115  5115  5115  5092  5071  5071  5071  5071  5071  5071  5071  5092  5092  5092  5115  5115  5137  5137  5137  5137  5137  5159  5137  5137  5137  5137  5137  5115  5115  5115  5115  5092  5092  5092  5092  5092  5071  5071  5071  5049  5049  5049  5049  5027  5027  5027  5027  5027  5027  5027  5027  5027  5027  5006  5027  5006  4985  4985  4964  4964  4943  4923  4943  4943  4943  4943  4923  4923  4923  4902  4902  4882  4882  4862  4862  4882  4882  4882  4882  4882  4902  4902  4902  4923  4923  4923  4902
3159  3167  3176  3193  3202  3202  3210  3219  3228  3237  3246  3255  3273  3291  3300  3319  3337  3356  3376  3395  3415  3425  3444  3465  3475  3485  3495  3495  3506  3495  3495  3485  3485  3475  3465  3465  3455  3455  3455  3465  3475  3475  3485  3495  3506  3516  3537  3548  3569  3591  3613  3646  3669  3692  3715  3751  3775  3799  3811  3848  3861  3886  3925  3978  4019  4102  4160     0     0  4328  4344  4376  4376  4392  4392  4408  4425  4458  4458  4492  4527  4544  4562  4579  4615  4633  4651  4670  4688  4707  4707  4726  4726  4726  4726  4726  4745  4745  4726  4726  4745  4745  4745  4745  4745  4726  4688  4615  4597  4344     0     0     0     0  3093  3085  3085  3085  3085  3077  3077  3085  3085  3077  3093  3101  3109  3117  3109  3109  3101  3093  3085  3077  3061  3053  3045  3045  3053  3061  3077  3093  3117  3142  3159  3185  3210  3237  3255  3273  3273  3282  3300     0     0     0     0     0     0     0     0     0     0     0     0     0     0     0     0     0     0     0     0     0     0     0     0     0     0     0     0     0     0     0     0     0     0     0     0     0     0     0     0   778   776   773   770   767   765   762   759   757   755   754   754   753   753   753   752   753   753   754   754   755   756   756   757   757   758   760   761   764   766   769   771   775   778   782   785   788   791   795   798   801   804   808   812   815   818   821   824     0     0     0  2697  2697  2704  2704  2704  2710  2710  2710  2710  2710  2716  2716  2716  2722  2716  2722  2722  2722  2729  2729  2729  2748  2767  2786  2806  2820  2826  2847     0     0  6028  6028  6028  6028  5997  5967  5907  5878  5820  5763  5708  5653  5599  5573  5573  5573  5547  5547  5521  5521  5495  5495  5470  5470  5445  5445  5445  5420  5420  5420  5445  5445  5445  5445  5445  5445  5445  5445  5445  5445  5420  5420  5420  5420  5420  5420  5420  5420  5420  5420  5445  5445  5445  5470  5470  5470  5445  5420  5420  5395  5370  5370  5370  5346  5322  5322  5322  5298  5274  5274  5274  5274  5274  5274  5274  5298  5298  5298  5274  5274  5274  5251  5251  5228  5228  5228  5228  5228  5205  5205  5205  5205  5205  5205  5205  5205  5228  5228  5228  5228  5228  5228  5251  5251  5228  5228  5228  5228  5228  5228  5205  5205  5205  5205  5182  5182  5182  5159  5159  5159  5159  5137  5137  5115  5115  5115  5137  5137  5137  5137  5137  5159  5159  5137  5137  5115  5115  5115  5115  5092  5071  5071  5071  5071  5071  5071  5071  5071  5092  5092  5115  5115  5115  5137  5137  5159  5159  5159  5137  5137  5137  5137  5137  5137  5115  5115  5115  5115  5115  5115  5092  5092  5092  5092  5071  5071  5071  5049  5049  5049  5049  5027  5027  5027  5027  5027  5049  5027  5027  5027  5027  5006  4985  4985  4964  4964  4943  4943  4943  4943  4943  4943  4943  4923  4923  4902  4902  4882  4882  4862  4862  4882  4882  4882  4882  4882  4902  4902  4902  4902  4902  4902  4902
3159  3167  3176  3193  3202  3210  3210  3219  3228  3237  3255  3264  3282  3291  3300  3319  3328  3347  3366  3385  3405  3415  3434  3455  3465  3485  3495  3495  3506  3506  3495  3495  3475  3475  3465  3465  3455  3455  3455  3455  3465  3475  3475  3495  3506  3527  3537  3559  3580  3602  3624  3658  3681  3704  3727  3763  3787  3811  3823  3848  3874  3899  3938  4005  4060  4145  4204     0     0  4344  4360  4392  4392  4392  4392  4408  4425  4442  4458  4475  4509  4527  4544  4579  4597  4633  4633  4651  4670  4688  4707  4707  4726  4707  4707  4707  4726  4707  4707  4707  4707  4726  4726  4726  4707  4707  4651  4544  4442     0     0     0     0     0  3101  3093  3093  3085  3085  3077  3085  3085  3085  3085  3093  3101  3109  3109  3109  3109  3101  3093  3085  3069  3061  3045  3045  3045  3045  3061  3069  3093  3109  3134  3151  3176  3202  3219  3246  3255  3264  3282  3291     0     0     0     0     0     0     0     0     0     0     0     0     0     0     0     0     0     0     0     0     0     0     0     0     0     0     0     0     0     0     0     0     0     0     0     0     0     0     0     0     0     0   781   778   774   772   769   766   763   761   760   759   758   758   757   757   758   759   759   759   760   760   761   762   762   763   764   766   768   770   773   776   780   783   786   789   792   795   798   800   803   806   810   814   816   819   823   826     0     0     0     0     0     0     0     0     0  2704  2704  2704  2704  2710  2710  2716  2716  2722  2722  2722  2722  2722  2729  2729  2741  2760  2780  2800  2806  2813  2833  2854     0  5907  5907  5937  5907  5907  5878  5849  5820  5791  5735  5680  5626  5599  5573  5547  5547  5547  5521  5521  5495  5495  5470  5470  5445  5445  5420  5420  5420  5420  5420  5420  5445  5445  5445  5470  5470  5470  5470  5445  5445  5420  5420  5420  5420  5420  5420  5420  5420  5420  5420  5445  5445  5470  5470  5470  5470  5470  5445  5420  5420  5395  5370  5370  5346  5322  5322  5322  5298  5298  5274  5274  5274  5274  5274  5274  5274  5274  5274  5274  5274  5251  5228  5228  5228  5228  5205  5205  5205  5205  5205  5205  5205  5205  5205  5228  5228  5228  5228  5228  5228  5228  5228  5228  5228  5228  5228  5228  5228  5228  5228  5205  5205  5205  5205  5205  5182  5182  5182  5182  5182  5159  5159  5159  5137  5137  5137  5137  5137  5137  5137  5137  5159  5159  5137  5137  5137  5115  5115  5115  5092  5071  5071  5071  5071  5071  5071  5049  5049  5071  5092  5092  5115  5115  5137  5159  5159  5182  5182  5159  5159  5159  5159  5137  5137  5137  5115  5115  5115  5115  5115  5115  5115  5092  5092  5092  5092  5092  5071  5071  5049  5049  5049  5049  5049  5027  5049  5049  5049  5027  5027  5027  5006  4985  4985  4964  4964  4943  4943  4964  4964  4943  4943  4943  4943  4923  4902  4902  4882  4882  4882  4882  4862  4862  4882  4882  4882  4882  4882  4902  4902  4902  4902  4882
3159  3167  3185  3193  3202  3210  3219  3228  3237  3246  3255  3264  3282  3291  3300  3309  3328  3337  3347  3366  3385  3395  3425  3434  3455  3465  3485  3495  3506  3506  3495  3495  3485  3475  3475  3465  3455  3455  3455  3465  3465  3475  3485  3495  3506  3527  3548  3569  3591  3624  3646  3669  3704  3727  3751  3787  3811  3836  3861  3899  3925  3965  4005  4060  4117  4175  4219  4265  4312  4344  4376  4392  4392  4392  4392  4392  4408  4425  4442  4475  4492  4492  4527  4562  4579  4597  4615  4633  4651  4670  4670  4670  4688  4688  4688  4688  4688  4688  4688  4670  4688  4707  4707  4707  4651  4651  4492  4312  4145     0     0     0     0  3142  3101  3101  3101  3093  3085  3085  3085  3085  3085  3077  3085  3093  3101  3109  3109  3101  3101  3093  3085  3069  3061  3045  3037  3037  3045  3053  3069  3085  3109  3126  3151  3176  3193  3210  3237  3255  3264  3273  3282  3291     0     0     0     0     0     0     0     0     0     0     0     0     0     0     0     0     0     0     0     0     0     0     0     0     0     0     0     0     0     0     0     0     0     0     0     0     0   802   799   797   795   790     0   781   779   776   773   770   768   766   764   763   763   763   763   763   764   764   765   765   765   766   767   767   768   769   771   773   775   778   780   785   787   790   793   796   798   800   803   805   808   811   815   817   820   826   830   837   845     0   861   869   871   871   871   871   871     0     0     0  2710  2710  2710  2716  2716  2722  2722  2722  2722  2729  2729  2735  2754  2773  2780  2786  2800  2813  2840     0  5791  5820  5820  5820  5820  5791  5791  5763  5735  5708  5653  5626  5599  5573  5547  5547  5521  5521  5495  5495  5495  5470  5445  5445  5445  5420  5420  5420  5420  5420  5420  5445  5445  5470  5470  5470  5470  5470  5470  5445  5445  5445  5420  5420  5420  5420  5420  5420  5445  5445  5470  5470  5470  5495  5495  5495  5470  5470  5445  5420  5395  5370  5370  5346  5322  5322  5322  5298  5298  5274  5274  5274  5274  5274  5274  5274  5274  5274  5274  5274  5251  5228  5228  5228  5205  5205  5205  5205  5205  5205  5205  5205  5205  5228  5228  5228  5228  5228  5228  5228  5228  5228  5228  5228  5228  5205  5228  5228  5228  5228  5205  5205  5205  5205  5205  5182  5182  5182  5182  5182  5182  5159  5159  5159  5159  5137  5137  5137  5137  5137  5137  5159  5159  5137  5137  5137  5137  5115  5115  5092  5092  5071  5071  5071  5071  5071  5049  5071  5092  5092  5115  5137  5159  5159  5182  5182  5182  5205  5182  5182  5182  5159  5159  5137  5137  5137  5137  5137  5137  5115  5115  5115  5115  5115  5115  5092  5092  5092  5092  5071  5071  5071  5049  5049  5049  5049  5049  5049  5049  5027  5027  5006  5006  4985  4985  4964  4964  4964  4964  4964  4964  4964  4964  4943  4943  4923  4902  4882  4882  4882  4862  4862  4862  4862  4862  4882  4882  4882  4882  4882  4882  4882  4882
3151  3167  3176  3193  3202  3210  3219  3228  3237  3246  3255  3264  3282  3291  3300  3309  3319  3328  3337  3347  3366  3376  3395  3425  3434  3455  3475  3485  3506  3506  3506  3495  3485  3475  3475  3465  3465  3455  3465  3465  3465  3485  3495  3495  3516  3537  3559  3580  3602  3624  3658  3681  3715  3739  3775  3799  3823  3848  3861  3899  3925  3965  4005  4074  4131  4175  4219  4265  4312  4328  4360  4376  4392  4376  4376  4376  4408  4408  4425  4442  4458  4475  4509  4527  4562  4562  4597  4615  4615  4651  4651  4651  4651  4651  4651  4651  4670  4670  4633  4597  4597  4579  4509  4458  4360  4265     0     0     0     0     0     0     0  3142  3126  3117  3109  3101  3093  3085  3085  3085  3085  3077  3085  3093  3101  3109  3109  3101  3101  3093  3085  3069  3053  3045  3037  3037  3045  3053  3069  3077  3101  3117  3142  3159  3185  3202  3228  3237  3246  3264  3273  3282     0     0     0     0     0     0     0     0     0     0     0     0     0     0     0     0     0     0     0     0     0     0     0     0     0     0     0     0     0     0     0     0     0     0     0     0   811   809     0     0   802   797   793   788     0     0   779   776   774   771   770   769   769   769   769   769   770   770   770   771   771   771   772   772   773   774   776   778   780   782   785   789   791   794   797   799   801   803   805   808   810   813   816   818   822   828   833   840     0     0     0   871   872   871   870   870   870   870   871     0     0  2710  2704  2710  2710  2716  2722  2722  2722  2722  2722  2729  2748  2767  2767  2773  2786  2800     0     0  5708  5708  5708  5735  5735  5735  5708  5708  5708  5680  5653  5626  5599  5573  5547  5547  5521  5495  5495  5495  5470  5470  5445  5445  5420  5420  5420  5420  5420  5420  5420  5445  5445  5470  5470  5470  5470  5470  5470  5470  5470  5445  5445  5420  5420  5420  5420  5420  5445  5445  5470  5470  5495  5521  5521  5521  5495  5470  5445  5420  5420  5370  5370  5346  5346  5322  5322  5298  5298  5274  5251  5251  5251  5251  5251  5251  5274  5274  5274  5274  5251  5228  5228  5228  5205  5205  5205  5205  5205  5205  5205  5205  5228  5228  5228  5228  5251  5228  5251  5228  5228  5228  5228  5228  5228  5205  5228  5228  5228  5228  5205  5205  5205  5205  5205  5182  5182  5182  5182  5182  5182  5182  5159  5159  5159  5159  5159  5137  5137  5137  5137  5159  5137  5137  5137  5137  5137  5115  5115  5092  5092  5092  5071  5071  5071  5071  5071  5071  5071  5092  5115  5137  5159  5182  5182  5205  5205  5205  5182  5182  5182  5159  5159  5159  5137  5137  5137  5137  5137  5137  5137  5115  5115  5115  5115  5115  5115  5092  5092  5092  5071  5071  5071  5071  5049  5049  5049  5049  5049  5027  5027  5006  5006  4985  4985  4964  4964  4964  4964  4985  4985  4985  4985  4964  4943  4943  4902  4902  4882  4882  4862  4862  4862  4862  4862  4862  4862  4862  4862  4862  4862  4862  4862
3142  3159  3176  3193  3202  3210  3219  3228  3246  3255  3264  3273  3282  3291  3291  3309  3309  3319  3319  3337  3337  3356  3376  3405  3425  3444  3465  3485  3495  3506  3506  3506  3495  3495  3485  3485  3475  3465  3465  3475  3485  3485  3506  3516  3527  3548  3559  3580  3613  3635  3658  3692  3715  3751  3775  3811  3836  3861  3886  3912  3938  3965  4019  4060  4131  4175  4204  4235  4281  4312  4328  4344  4344  4344  4344  4344  4360  4376  4392  4408  4425  4442  4458  4492  4527  4544  4562  4597  4615  4633  4633  4633  4633  4615  4579  4562  4527  4492  4442  4376  4312  4265  4219  4145     0     0     0     0     0     0  3291  3202     0  3134  3126  3126  3117  3109  3101  3101  3101  3093  3085  3085  3093  3101  3101  3117  3117  3109  3093  3093  3077  3069  3053  3037  3029  3029  3045  3053  3061  3077  3093  3117  3134  3151  3176  3193  3210  3219  3228  3237  3246     0     0     0     0     0     0     0     0     0     0     0     0     0     0     0     0     0     0     0     0     0     0     0     0     0     0     0     0     0     0     0     0     0     0     0     0     0     0   815   812   810   808   804   799   795   792   789   785   782   780   778   776     0   775   774   774   775   775   775   776   776   776   777   777   778   778   779   780   782   785   787   789   792   795   797   799   802   804   806   808   810   811   814   817   819   823   830   836   843     0   857     0   869   870   869   868   867   868   869   869   870     0  2710  2704  2704  2710  2710  2716  2710  2722  2716  2716  2722  2741  2754  2760  2767  2773     0     0  5653  5653  5680  5680  5680  5680  5680  5680  5680  5680  5653  5653  5626  5599  5573  5547  5547  5521  5495  5495  5470  5470  5470  5445  5445  5420  5420  5420  5420  5420  5420  5420  5445  5445  5470  5470  5470  5495  5495  5495  5495  5470  5470  5445  5445  5420  5420  5420  5420  5445  5445  5470  5470  5495  5495  5521  5495  5470  5445  5420  5420  5395  5370  5370  5346  5346  5322  5322  5298  5274  5274  5251  5251  5251  5251  5251  5251  5251  5274  5274  5251  5228  5228  5228  5228  5205  5205  5205  5205  5205  5205  5228  5228  5228  5228  5228  5251  5251  5251  5251  5251  5228  5228  5228  5228  5228  5205  5228  5228  5228  5228  5205  5205  5205  5205  5205  5182  5182  5182  5182  5205  5182  5182  5159  5159  5159  5159  5159  5137  5137  5137  5137  5137  5137  5137  5137  5137  5137  5115  5115  5115  5092  5092  5092  5071  5071  5071  5071  5071  5092  5092  5115  5137  5159  5182  5182  5205  5205  5205  5205  5205  5182  5182  5159  5159  5159  5159  5137  5137  5137  5137  5137  5137  5137  5115  5115  5115  5115  5115  5092  5092  5071  5092  5071  5071  5071  5071  5071  5071  5049  5049  5049  5027  5027  5006  5006  4985  4985  4985  4985  5006  5006  5006  5006  4985  4964  4943  4923  4902  4902  4882  4862  4862  4862  4842  4842  4862  4862  4862  4862  4862  4862  4862  4862
3134  3151  3176  3185  3202  3210  3219  3237  3246  3255  3264  3282  3291  3300  3300  3309  3309  3309  3319  3319  3328  3337  3366  3385  3415  3434  3465  3475  3495  3516  3516  3516  3516  3506  3506  3495  3495  3485  3485  3495  3495  3506  3516  3527  3537  3548  3569  3591  3613  3635  3658  3681  3715  3739  3775  3787  3811  3836  3848  3886  3925  3951  3991  4046  4102  4131  4175  4204  4235  4265  4281  4296  4312  4312  4296  4312  4328  4344  4344  4376  4392  4408  4442  4492  4509  4527  4562  4579  4579  4615  4615  4615  4615  4544  4492  4442  4376  4328  4235  4160  4088  4019  3965  3899     0     0     0     0     0     0     0  3176  3159  3134  3134  3134  3126  3126  3117  3109  3101  3101  3093  3093  3101  3101  3109  3117  3117  3109  3101  3085  3077  3061  3045  3037  3029  3029  3037  3045  3053  3077  3093  3109  3126  3142  3167  3176  3202  3210  3210     0     0     0     0     0     0     0     0     0     0     0     0     0     0     0     0     0     0     0     0     0     0     0     0     0     0     0     0     0     0     0     0     0     0     0     0     0     0     0   821   818   816   814   812   809   804   800   798   795   791   789   786   783   782   781   781   780   780   780   781   781   781   782   782   782   782   783   783   784   786   787   789   791   793   795   798   800   802   804   805   808   809   811   813   815   818   821   824   831   838     0     0   857   862   867   868   867   866   866   866   866   867   869   871     0  2704  2704  2704  2704  2710  2716  2716  2716  2716  2722  2735  2741  2754  2760  2767     0     0  5626  5626  5626  5653  5653  5680  5680  5680  5680  5680  5653  5653  5626  5599  5573  5547  5547  5521  5495  5495  5470  5470  5470  5445  5445  5420  5420  5420  5420  5420  5420  5420  5420  5445  5445  5470  5470  5495  5495  5495  5495  5470  5470  5445  5445  5420  5420  5420  5420  5445  5445  5445  5470  5470  5495  5495  5470  5470  5445  5420  5420  5395  5370  5370  5346  5322  5322  5298  5298  5274  5251  5251  5251  5251  5251  5251  5251  5251  5251  5274  5251  5228  5228  5228  5228  5228  5205  5205  5205  5228  5228  5251  5251  5251  5251  5251  5251  5251  5251  5251  5251  5228  5228  5228  5228  5228  5228  5228  5228  5228  5205  5205  5205  5182  5205  5205  5182  5182  5182  5182  5182  5182  5182  5159  5159  5159  5159  5159  5137  5137  5137  5137  5137  5137  5137  5137  5137  5115  5115  5115  5115  5092  5092  5071  5071  5071  5071  5071  5071  5092  5115  5115  5137  5159  5182  5182  5182  5205  5205  5205  5182  5182  5159  5159  5159  5159  5137  5115  5137  5137  5137  5137  5115  5115  5115  5115  5115  5115  5092  5092  5071  5071  5071  5049  5049  5049  5049  5049  5049  5049  5049  5027  5027  5027  5006  5006  5006  4985  5006  5006  5006  5006  5006  4985  5006  4985  4964  4943  4923  4902  4882  4882  4862  4842  4842  4842  4862  4862  4862  4862  4862  4862  4862  4862
3134  3151  3167  3185  3202  3210  3228  3237  3255  3273  3282  3291  3300  3309  3309  3319  3319  3319  3319  3319  3328  3337  3356  3385  3405  3434  3455  3475  3495  3506  3516  3527  3516  3516  3516  3516  3516  3506  3506  3506  3506  3516  3516  3527  3537  3548  3569  3580  3602  3624  3646  3669  3692  3715  3739  3751  3775  3799  3799  3823  3861  3874  3912  3965  4019  4060  4088  4131  4160  4175  4204  4219  4219  4219  4235  4250  4265  4281  4296  4312  4328  4328  4344  4376  4376  4376  4408  4425  4442  4475  4492  4527  4509  4425  4360  4281  4190  4117  4032  3951  3861  3799     0     0     0     0     0     0  3273  3202  3185  3159  3151  3142  3142  3142  3142  3134  3134  3126  3117  3109  3109  3101  3109  3109  3109  3117  3109  3101  3093  3085  3077  3053  3045  3029  3029  3029  3037  3045  3053  3069  3085  3101  3126  3134  3151  3167  3185  3193  3193     0     0     0     0     0     0     0     0     0     0     0     0     0     0     0     0     0     0     0     0     0     0     0     0     0     0     0     0     0     0     0     0     0     0     0     0     0     0     0   824   820   818   816   814   811   808   804   803   799   796   794   792   789   788   787   787   786   786   787   787   786   787   787   787   787   788   788   788   789   790   791   793   795   796   798   800   802   804   805   806   808   810   812   814   816   818   822   825   831   838     0   851   857   862   865   866   865   864   864   864   864   866   867   869   871   875     0  2697  2704  2704  2710  2710  2710  2710  2716  2722  2729  2735  2741  2741     0     0  5626  5626  5653  5653  5680  5680  5708  5708  5708  5680  5680  5653  5653  5626  5599  5573  5547  5521  5521  5495  5495  5495  5470  5470  5445  5445  5445  5420  5420  5420  5420  5420  5420  5445  5445  5445  5470  5470  5470  5470  5470  5470  5445  5445  5420  5420  5420  5420  5420  5420  5420  5445  5470  5470  5470  5470  5445  5445  5420  5395  5395  5370  5370  5346  5346  5322  5322  5298  5298  5274  5251  5251  5251  5228  5228  5251  5251  5251  5251  5274  5251  5251  5228  5228  5228  5228  5228  5205  5205  5228  5228  5251  5251  5251  5251  5251  5251  5251  5251  5251  5251  5251  5228  5228  5228  5228  5228  5228  5228  5228  5228  5205  5205  5182  5182  5182  5159  5159  5159  5182  5182  5182  5182  5159  5159  5159  5159  5159  5137  5137  5137  5137  5137  5137  5137  5137  5137  5137  5115  5115  5115  5092  5092  5092  5071  5071  5071  5092  5092  5115  5115  5137  5159  5159  5182  5182  5205  5205  5205  5182  5182  5159  5159  5159  5159  5137  5137  5115  5137  5137  5137  5137  5137  5115  5115  5115  5115  5115  5092  5092  5071  5071  5071  5049  5049  5049  5049  5049  5049  5049  5049  5049  5027  5027  5027  5027  5006  5006  5006  5027  5027  5027  5027  5027  5027  5006  4985  4964  4923  4902  4902  4862  4862  4842  4842  4822  4842  4842  4862  4862  4882  4882  4862  4862
3134  3151  3176  3193  3202  3210  3228  3246  3264  3273  3291  3300  3309  3319  3319  3319  3319  3319  3319  3319  3328  3328  3356  3366  3395  3415  3455  3475  3495  3516  3527  3537  3537  3537  3548  3548  3548  3537  3537  3537  3537  3537  3537  3537  3537  3548  3559  3569  3580  3602  3624  3635  3658  3681  3704  3727  3727  3751  3763  3775  3787  3811  3823  3874  3899  3938  3978  4005  4046  4060  4074  4088  4102  4117  4131  4131  4145  4145  4160  4160  4175  4145  4145  4160  4175  4175  4190  4219  4265  4296  4312  4328  4296  4204  4145  4060  3978  3899     0     0     0     0  3548  3465  3434  3366  3291  3228  3185  3167  3151  3151  3151  3151  3151  3151  3151  3142  3142  3142  3134  3126  3126  3117  3117  3117  3126  3126  3109  3101  3093  3085  3069  3053  3037  3029  3022  3029  3029  3037  3045  3069  3077  3101  3117  3126  3142  3151  3167  3167  3176  3176     0     0     0     0     0     0     0     0     0     0     0     0     0     0     0     0     0     0     0     0     0     0     0     0     0     0     0     0     0     0     0     0     0     0     0     0     0     0   827   822   819   817   815   813   809   807   805   803   801   799   797   795   793   792   791   790   790   790   790   790   790   789   789   790   790   790   791   791   792   794   795   797   798   800   801   803   804   806   808   809   811   813   814   816   819   822   825   832     0     0   851   856   860   864   864   863   862   861   861   862   863   864   866   869   872   873     0  2697  2697  2704  2704  2704  2704  2710  2716  2716  2716  2716  2716  2722     0  5626  5653  5680  5680  5708  5708  5708  5735  5735  5708  5708  5680  5653  5626  5599  5599  5573  5547  5521  5521  5495  5495  5495  5470  5470  5470  5445  5445  5420  5420  5420  5445  5445  5445  5445  5445  5445  5470  5470  5470  5470  5470  5445  5445  5420  5420  5395  5395  5420  5420  5420  5420  5445  5445  5445  5445  5445  5420  5395  5395  5370  5370  5346  5346  5346  5322  5322  5298  5298  5274  5251  5251  5228  5228  5228  5228  5228  5251  5251  5274  5274  5251  5228  5228  5251  5251  5228  5205  5205  5228  5228  5251  5251  5251  5251  5251  5251  5251  5251  5251  5251  5251  5251  5251  5251  5251  5228  5228  5228  5228  5228  5205  5205  5182  5182  5182  5159  5159  5159  5159  5159  5159  5159  5159  5159  5159  5159  5137  5137  5137  5137  5115  5115  5115  5137  5137  5137  5137  5115  5115  5115  5115  5092  5092  5092  5092  5092  5115  5115  5115  5137  5137  5159  5182  5182  5205  5205  5205  5205  5205  5182  5182  5159  5159  5159  5137  5137  5115  5137  5137  5137  5137  5137  5115  5115  5115  5115  5115  5092  5092  5071  5071  5071  5049  5049  5049  5049  5049  5049  5049  5049  5049  5049  5027  5027  5027  5027  5027  5027  5027  5027  5027  5027  5027  5027  5006  5006  4964  4943  4923  4902  4882  4862  4842  4822  4822  4842  4842  4842  4862  4882  4882  4862  4882
3142  3159  3176  3193  3202  3219  3237  3255  3273  3291  3300  3319  3328  3337  3337  3337  3337  3328  3328  3328  3328  3337  3356  3366  3385  3415  3444  3465  3495  3516  3537  3548  3559  3559  3569  3569  3580  3569  3559  3559  3548  3548  3548  3548  3548  3548  3548  3559  3569  3591  3602  3613  3624  3646  3669  3681  3681  3692  3715  3715  3727  3739  3763  3787  3823  3848  3874  3899  3938  3951  3965  3978  4005  4005  4005  4005  4005  4019  4019  3991  3991  3978  3965     0  3978     0     0     0  4046     0     0     0     0     0     0     0     0  3681  3613  3559  3485  3434  3385  3347  3309  3255  3202  3176  3142  3151  3151  3151  3159  3159  3159  3167  3167  3159  3159  3159  3151  3151  3142  3134  3134  3126  3126  3126  3117  3101  3085  3077  3061  3053  3037  3029  3022  3022  3029  3037  3045  3061  3077  3093  3109  3117  3126  3134  3151  3151  3151  3159  3159  3167     0     0     0     0     0     0     0     0     0     0     0     0     0     0     0     0     0     0     0     0     0     0     0     0     0     0     0     0     0     0     0     0     0     0     0     0   829   824   821   818   816   814   811   809   807   805   803   802   799   798   796   795   795   793   792   792   792   792   791   791   791   792   792   792   793   794   795   796   797   798   800   801   802   804   805   806   808   810   811   813   815   816   819   821   825   832   838   845     0   854   857   860   860   859   857   856   856   857   859   860   863   866   869   871   872     0  2697  2697  2697  2704  2704  2710  2710  2704  2697  2697  2691  2691     0  5653  5680  5708  5708  5735  5735  5763  5763  5763  5735  5735  5708  5680  5653  5626  5599  5573  5547  5547  5521  5495  5495  5495  5470  5470  5470  5470  5445  5445  5420  5420  5445  5445  5445  5445  5445  5445  5445  5470  5470  5445  5445  5445  5420  5420  5395  5395  5395  5395  5395  5395  5420  5420  5420  5420  5420  5420  5395  5395  5370  5370  5346  5346  5346  5346  5322  5322  5322  5298  5274  5274  5251  5251  5251  5228  5251  5251  5251  5251  5274  5274  5251  5228  5228  5251  5251  5228  5205  5205  5228  5228  5251  5251  5251  5251  5251  5251  5274  5274  5274  5251  5251  5251  5251  5251  5251  5251  5251  5251  5228  5228  5205  5205  5182  5182  5182  5159  5159  5159  5159  5159  5159  5159  5159  5159  5137  5137  5137  5137  5137  5137  5137  5137  5115  5137  5137  5137  5137  5137  5115  5115  5115  5115  5115  5092  5115  5115  5115  5115  5115  5115  5137  5159  5182  5182  5182  5205  5205  5205  5205  5205  5182  5159  5159  5159  5137  5137  5115  5115  5115  5137  5115  5115  5115  5092  5092  5092  5092  5071  5071  5071  5071  5049  5049  5049  5049  5049  5049  5049  5049  5049  5049  5049  5027  5027  5027  5027  5027  5027  5027  5027  5027  5027  5027  5027  5027  5006  4964  4943  4923  4902  4882  4862  4842  4822  4822  4822  4842  4842  4862  4882  4882  4882  4882
3151  3159  3176  3193  3210  3219  3237  3255  3282  3291  3309  3328  3337  3347  3356  3356  3347  3347  3347  3337  3337  3337  3347  3366  3376  3405  3434  3455  3475  3506  3527  3537  3559  3569  3569  3580  3580  3580  3569  3559  3559  3548  3548  3548  3548  3537  3548  3548  3559  3569  3580  3591  3591  3613  3624  3635  3646  3658  3658  3658  3681  3681  3692  3727  3751  3763  3787  3811  3823  3836  3861  3874  3886  3886  3886  3874  3874  3874  3874     0     0     0     0     0     0     0     0     0     0     0     0     0     0     0     0     0  3537  3495  3444  3395  3347  3309  3273  3255  3228  3193  3167  3159  3151  3151  3159  3159  3159  3167  3176  3176  3176  3176  3176  3176  3167  3167  3159  3151  3142  3142  3134  3126  3117  3101  3085  3077  3061  3053  3037  3029  3022  3022  3029  3037  3045  3061  3069  3085  3093  3101  3117  3126  3134  3134  3134  3142  3151     0     0     0     0     0     0     0     0     0     0     0     0     0     0     0     0     0     0     0     0     0     0     0     0     0     0     0     0     0     0     0     0     0   860     0     0     0   831   826   823   820   817   815   812   810   809   807   805   803   801   800   798   797   796   795   795   794   793   793   793   793   793   793   794   795   795   796   797   798   799   800   801   802   803   805   806   807   809   810   811   813   815   817   819   821   825   832   837   843   847   851   854   856   856   854   852   851   852   852   854   857   859   862   865   867   869   871     0  2697  2697  2697  2697  2704  2704  2691  2679  2679  2679     0     0     0  5735     0     0  5763  5791  5791  5791  5791  5791  5763  5735  5708  5653  5626  5599  5599  5547  5547  5521  5495  5495  5495  5470  5470  5470  5470  5445  5445  5420  5420  5445  5445  5445  5420  5445  5445  5445  5445  5445  5445  5445  5445  5420  5420  5395  5395  5395  5395  5395  5395  5420  5420  5420  5420  5395  5395  5370  5346  5346  5346  5346  5346  5346  5346  5346  5346  5346  5322  5298  5274  5274  5251  5251  5251  5251  5251  5251  5251  5274  5274  5251  5251  5228  5251  5251  5228  5228  5205  5228  5228  5251  5251  5251  5251  5251  5251  5251  5274  5274  5251  5251  5251  5251  5251  5251  5251  5228  5228  5228  5228  5205  5205  5182  5182  5182  5159  5159  5159  5159  5159  5159  5159  5159  5159  5137  5137  5137  5137  5137  5137  5137  5137  5137  5137  5137  5137  5137  5137  5137  5137  5137  5115  5115  5115  5115  5115  5115  5115  5115  5137  5159  5159  5182  5182  5182  5205  5205  5205  5205  5182  5159  5159  5159  5159  5137  5137  5115  5115  5115  5115  5115  5115  5092  5092  5071  5071  5071  5071  5071  5049  5049  5049  5049  5049  5049  5049  5049  5027  5049  5049  5049  5049  5027  5027  5027  5027  5027  5027  5027  5027  5027  5027  5027  5027  5027  5006  4964  4943  4923  4902  4882  4862  4842  4822  4822  4822  4842  4842  4862  4882  4882  4882  4882
3159  3167  3185  3202  3210  3228  3246  3264  3282  3300  3319  3328  3347  3356  3366  3366  3366  3356  3347  3347  3347  3347  3347  3356  3376  3395  3425  3444  3465  3495  3516  3527  3548  3559  3569  3580  3580  3580  3569  3559  3559  3548  3548  3537  3527  3527  3527  3527  3537  3548  3548  3548  3559  3569  3580  3602  3602  3613  3624  3613  3624  3635  3646  3658  3669  3692  3692  3715  3739  3751  3763  3775  3775  3775  3775  3763     0     0     0     0     0     0     0  3692     0  3681  3669  3669  3669  3658     0     0     0     0     0     0  3366  3328  3282  3246  3219  3202  3185  3176  3167  3151  3134  3142  3151  3151  3159  3159  3167  3167  3176  3176  3185  3185  3185  3185  3185  3176  3167  3159  3151  3142  3134  3126  3117  3101  3085  3077  3061  3045  3037  3029  3022  3022  3029  3029  3045  3053  3069  3085  3093  3109  3117  3126  3134  3134  3142  3142     0     0     0     0     0     0     0     0     0     0     0     0     0     0     0     0     0     0     0     0     0     0     0     0     0     0     0     0     0     0     0     0     0   880   865   854     0   838   833   827   823   821   818   815   813   811   810   808   806   805   803   802   800   799   798   797   796   796   795   795   795   795   795   795   796   796   797   797   798   799   800   801   802   803   804   805   806   808   809   810   812   814   815   817   819   822   826   831   836   841   845   848     0   851   851   849   847   846   846   848   850   852   855   858   862   864   866   867   868  2691  2691  2691  2691  2697  2697  2679  2667  2661  2661  2655     0     0  5763     0  5820  5820  5820  5849  5849  5849  5820  5791  5763  5708  5680  5653  5626  5599  5547  5547  5521  5521  5495  5495  5470  5470  5470  5470  5445  5445  5420  5420  5420  5445  5445  5420  5420  5445  5445  5445  5445  5445  5445  5420  5420  5395  5395  5395  5370  5370  5370  5370  5395  5395  5395  5395  5370  5370  5346  5346  5346  5346  5346  5322  5346  5346  5346  5346  5346  5322  5298  5298  5298  5274  5274  5251  5251  5251  5251  5274  5274  5274  5251  5251  5228  5251  5251  5251  5228  5228  5228  5251  5251  5251  5251  5251  5251  5251  5251  5251  5251  5251  5251  5251  5251  5251  5251  5251  5251  5228  5228  5228  5205  5205  5182  5182  5182  5159  5159  5159  5159  5159  5159  5159  5137  5137  5137  5137  5137  5137  5137  5137  5137  5137  5137  5137  5137  5137  5137  5137  5137  5137  5115  5115  5115  5115  5115  5115  5115  5115  5137  5137  5137  5159  5182  5182  5182  5182  5182  5182  5182  5159  5159  5137  5137  5137  5115  5115  5092  5092  5092  5092  5092  5092  5071  5071  5071  5071  5049  5049  5049  5049  5049  5027  5049  5049  5049  5049  5049  5027  5027  5049  5049  5049  5049  5027  5027  5027  5027  5027  5027  5027  5027  5027  5027  5006  5027  5006  4964  4943  4923  4902  4882  4862  4842  4822  4822  4822  4842  4842  4862  4882  4882  4882  4902
3167  3176  3193  3202  3219  3228  3255  3264  3291  3300  3319  3337  3356  3366  3376  3376  3376  3366  3366  3356  3356  3347  3347  3366  3376  3395  3415  3434  3455  3475  3495  3516  3537  3548  3569  3569  3580  3580  3569  3559  3548  3548  3537  3527  3516  3516  3506  3506  3506  3516  3516  3527  3516  3527  3537  3548  3548  3559  3559  3559  3559  3559  3569  3580  3591  3602  3613  3613  3635  3646  3658  3669  3669  3669  3669  3646     0     0  3613  3591  3569  3559  3548  3537  3548  3527  3516  3506  3506  3485  3465     0     0     0  3319  3282  3246  3219  3193  3176  3167  3151  3134  3142  3134  3134  3142  3142  3142  3151  3159  3159  3167  3167  3176  3185  3185  3193  3193  3193  3193  3176  3176  3167  3159  3151  3142  3134  3117  3101  3085  3077  3061  3045  3037  3029  3022  3022  3029  3029  3037  3053  3069  3077  3093  3101  3109  3126  3134  3142  3134     0     0     0     0     0     0     0     0     0     0     0     0     0     0     0     0     0     0     0     0     0     0     0     0     0     0     0     0     0     0     0     0     0     0   882   867   855   845   839   833   827   824   822   819   816   814   812   810   809   807   805   804   803   801   800   799   798   797   797   797   796   796   796   796   796   797   797   798   799   799   800   801   802   803   804   805   806   807   808   809   811   812   814   816   818   819   822   826   830   834   838   841   843   845   846   845   845   842   841   841   843   845   848   850   853   856   859   861   862   864     0     0  2685     0     0     0  2667  2649  2643  2637  2637     0     0  5849     0  5878  5907  5878  5907  5878  5878  5849  5820  5791  5735  5680  5653  5626  5599  5573  5547  5521  5521  5495  5495  5470  5470  5470  5470  5445  5445  5420  5420  5420  5420  5420  5420  5420  5420  5445  5445  5445  5445  5445  5420  5420  5395  5395  5370  5370  5370  5370  5370  5370  5370  5370  5370  5370  5346  5346  5322  5322  5322  5322  5322  5346  5346  5346  5346  5346  5346  5322  5322  5298  5298  5298  5274  5274  5274  5274  5274  5274  5274  5251  5251  5251  5251  5274  5251  5228  5228  5228  5251  5251  5251  5251  5251  5251  5251  5251  5251  5251  5251  5251  5251  5251  5251  5251  5251  5228  5228  5228  5228  5205  5182  5182  5182  5182  5159  5159  5159  5159  5159  5159  5159  5137  5137  5137  5137  5137  5137  5137  5137  5137  5137  5137  5137  5137  5137  5137  5137  5137  5137  5137  5137  5137  5137  5115  5115  5115  5137  5115  5137  5137  5137  5159  5159  5159  5159  5159  5159  5159  5137  5137  5137  5115  5115  5115  5092  5092  5092  5092  5092  5092  5071  5071  5049  5049  5049  5049  5027  5027  5027  5027  5027  5027  5027  5027  5027  5027  5027  5027  5027  5027  5027  5027  5027  5027  5027  5027  5027  5027  5027  5027  5027  5006  5006  5006  4985  4964  4943  4923  4902  4882  4862  4842  4842  4822  4822  4842  4842  4862  4882  4882  4882  4902
3176  3193  3202  3210  3228  3237  3255  3273  3291  3309  3328  3337  3356  3366  3376  3385  3376  3376  3366  3366  3356  3356  3356  3366  3366  3385  3405  3415  3444  3455  3485  3495  3516  3537  3548  3559  3580  3580  3569  3559  3548  3537  3527  3527  3516  3506  3495  3485  3485  3495  3495  3495  3495  3495  3506  3506  3516  3516  3527  3516  3516  3527  3527  3537  3537  3537  3537  3548  3548  3559  3569  3580  3580  3580  3569  3548  3537  3527  3506  3485  3455  3444  3434  3434  3434  3425  3405  3395  3385  3366  3347  3319  3291  3246  3219  3210  3193  3176  3167  3159  3151  3142  3142  3142  3134  3134  3142  3142  3142  3151  3151  3159  3167  3167  3176  3185  3185  3185  3193  3193  3193  3185  3185  3176  3167  3159  3142  3134  3117  3101  3085  3077  3061  3045  3037  3029  3022  3022  3029  3029  3037  3045  3061  3077  3093  3101  3109  3126  3134     0     0     0     0     0     0     0     0     0     0     0     0     0     0     0     0     0     0     0     0     0     0     0     0     0     0     0     0     0     0   911   912   909     0   901   896   885   871   858   846   839   833   827   824   822   819   816   814   813   811   809   808   806   805   803   802   801   800   799   798   798   798   797   797   797   797   797   798   798   799   799   800   801   802   803   804   804   805   806   808   809   810   811   813   814   816   818   819   822   825   829   831   834   837   839   840   840   840   839   837   837   837   839   840   843   845   848   851   852   854   855   857   859   859   860     0     0     0  2649  2625  2620  2620  2614     0     0  5937     0  5967  5967  5967  5967  5937  5937  5878  5849  5791  5763  5680  5653  5626  5599  5573  5547  5521  5521  5495  5495  5470  5470  5470  5445  5420  5420  5420  5420  5395  5420  5420  5420  5420  5420  5445  5445  5445  5445  5420  5420  5395  5395  5370  5370  5370  5346  5346  5346  5346  5346  5346  5346  5322  5322  5322  5298  5322  5322  5322  5322  5346  5370  5346  5370  5370  5370  5346  5346  5346  5346  5322  5298  5298  5274  5274  5274  5274  5274  5274  5251  5251  5251  5274  5251  5251  5251  5251  5251  5251  5251  5251  5228  5228  5228  5228  5251  5251  5251  5251  5251  5251  5251  5251  5228  5228  5228  5228  5205  5205  5182  5182  5182  5182  5159  5159  5159  5159  5159  5159  5137  5137  5137  5137  5137  5137  5137  5115  5115  5137  5137  5137  5137  5137  5137  5137  5137  5137  5137  5137  5137  5137  5137  5137  5137  5137  5137  5137  5137  5137  5159  5159  5159  5159  5159  5159  5159  5137  5137  5137  5137  5115  5115  5092  5092  5092  5092  5071  5092  5071  5071  5049  5049  5049  5049  5049  5049  5027  5027  5027  5027  5027  5027  5027  5027  5006  5006  5006  5006  5006  5006  5027  5027  5027  5027  5006  5006  5027  5027  5027  5006  5006  4985  4985  4985  4964  4923  4902  4902  4882  4862  4842  4842  4822  4822  4842  4842  4862  4882  4882  4882  4882
3185  3193  3210  3219  3228  3246  3255  3273  3291  3309  3328  3337  3347  3366  3376  3385  3376  3376  3376  3366  3376  3366  3366  3366  3366  3385  3395  3415  3434  3444  3465  3485  3506  3527  3537  3559  3569  3569  3559  3548  3548  3537  3527  3516  3506  3495  3485  3475  3475  3475  3465  3465  3455  3455  3465  3465  3465  3475  3475  3475  3465  3475  3475  3475  3485  3485  3485  3485  3495  3495  3506  3506  3506  3495  3485  3475  3465  3455  3434  3425  3415  3405  3405  3405  3395  3385  3376  3366  3366  3356  3328  3309  3282  3255  3237  3210  3202  3185  3176  3159  3151  3142  3134  3134  3134  3134  3134  3142  3142  3151  3151  3159  3167  3167  3167  3176  3185  3185  3193  3193  3193  3193  3193  3185  3167  3167  3151  3142  3126  3101  3093  3077  3061  3053  3037  3037  3022  3029  3022  3022  3029  3045  3061  3069  3085  3101  3109  3126  3134     0     0     0     0     0     0     0     0     0     0     0     0     0     0     0     0     0     0     0     0     0     0     0     0     0     0     0     0     0   905   907   907   906   903   900   895     0   873     0   848   841   834   827   824   822   819   816   814   813   811   810   808   807   805   804   803   802   801   800   799   799   799   798   798   798   798   798   798   799   800   800   801   802   803   803   804   805   806   807   808   809   810   811   813   814   816   818   819   822   824   827   830   831   833   835   835   835   835   834   832   831   832   833   834   836   839   840   843   844   845   847   849   850   851   851   852     0  2661  2637  2614  2608  2608     0     0     0     0     0  6028  6028  5997  5997  5967  5967  5907  5878  5820  5763  5680  5653  5626  5573  5547  5521  5495  5495  5470  5470  5445  5445  5445  5420  5420  5395  5370  5395  5395  5395  5395  5395  5395  5420  5420  5445  5420  5420  5420  5395  5395  5395  5370  5346  5346  5346  5322  5322  5346  5346  5322  5322  5322  5322  5298  5298  5298  5322  5322  5346  5346  5370  5370  5395  5395  5395  5395  5370  5370  5370  5346  5322  5298  5298  5298  5298  5274  5274  5274  5251  5251  5274  5274  5251  5251  5251  5251  5251  5251  5251  5251  5228  5228  5228  5228  5228  5251  5251  5251  5251  5251  5251  5251  5228  5228  5228  5228  5205  5205  5182  5182  5182  5182  5159  5159  5159  5159  5159  5159  5137  5137  5137  5115  5137  5137  5115  5115  5115  5115  5137  5137  5137  5137  5137  5137  5137  5137  5137  5137  5137  5137  5137  5137  5137  5137  5137  5159  5159  5159  5159  5182  5182  5182  5182  5159  5159  5137  5137  5115  5115  5092  5092  5092  5092  5092  5071  5071  5071  5071  5071  5071  5049  5049  5049  5049  5027  5049  5049  5049  5049  5049  5027  5027  5006  5006  5006  5006  5006  5006  5006  5006  5006  5006  5027  5027  5027  5027  5027  5027  5006  5006  5006  4985  4964  4943  4923  4902  4882  4862  4862  4842  4842  4822  4822  4842  4842  4862  4862  4882  4882  4882
3193  3202  3210  3219  3237  3246  3255  3273  3291  3300  3319  3328  3337  3356  3366  3366  3366  3366  3366  3376  3376  3366  3366  3366  3366  3385  3395  3405  3415  3434  3444  3465  3495  3516  3527  3537  3548  3559  3559  3548  3537  3527  3516  3506  3495  3475  3455  3455  3434  3434  3434  3434  3425  3425  3425  3425  3434  3434  3444  3444  3444  3444  3444  3455  3455  3455  3455  3455  3455  3455  3465  3465  3455  3455  3444  3434  3425  3425  3415  3405  3385  3385  3385  3395  3385  3385  3376  3366  3356  3347  3337  3319  3291  3273  3246  3228  3210  3193  3176  3159  3151  3142  3134  3134  3134  3126  3134  3134  3142  3142  3151  3159  3167  3159  3167  3176  3185  3185  3185  3185  3185  3193  3193  3185  3176  3159  3151  3142  3126  3109  3101  3085  3069  3061  3045  3037  3029  3029  3022  3022  3022  3037  3053  3061  3077     0     0     0     0     0     0     0     0     0     0     0     0     0     0     0     0     0     0     0     0     0     0     0     0     0     0     0     0     0     0   894   896   898   901   902   903   902   899   896     0   885   872     0     0   841   834   828   824   822   819   817   815   814   812   810   809   808   806   805   804   803   802   801   800   800   800   799   799   799   799   799   799   800   800   802   802   803   803   804   805   805   806   807   808   809   810   811   813   814   816   818   819   822   824   826   827   829   830   830   830   830   829   829   827   826   827   827   829   830   831   833   835   836   837   839     0     0     0   844   845   844     0  2620     0     0     0     0     0     0     0     0  6059  6059  6028  6028  5997  5967  5937  5878  5820  5735  5680  5653  5599  5547  5521  5495  5470  5470  5445  5445  5420  5420  5420  5420  5395  5370  5370  5370  5370  5395  5395  5395  5395  5395  5420  5420  5420  5420  5420  5395  5395  5370  5370  5346  5346  5322  5322  5322  5322  5322  5322  5322  5322  5298  5298  5298  5298  5322  5322  5346  5346  5370  5395  5395  5395  5395  5395  5395  5395  5370  5346  5322  5322  5298  5298  5298  5274  5274  5274  5274  5274  5274  5274  5274  5251  5251  5251  5251  5251  5251  5228  5228  5228  5205  5228  5228  5228  5228  5228  5251  5251  5251  5251  5228  5228  5228  5228  5205  5205  5182  5182  5182  5159  5159  5159  5137  5137  5137  5137  5137  5137  5115  5115  5115  5115  5115  5115  5115  5115  5115  5137  5137  5137  5137  5137  5159  5159  5159  5137  5137  5137  5137  5137  5137  5159  5159  5159  5182  5182  5182  5182  5182  5182  5182  5159  5159  5137  5137  5115  5115  5092  5092  5092  5092  5071  5071  5071  5071  5071  5071  5071  5071  5071  5071  5071  5049  5071  5071  5071  5071  5049  5027  5027  5027  5006  4985  5006  4985  4985  5006  5006  5006  5006  5006  5027  5027  5027  5006  5006  5006  5006  4985  4964  4943  4923  4923  4902  4882  4862  4862  4842  4842  4822  4822  4842  4842  4862  4862  4862  4882  4882
3202  3210  3219  3219  3237  3246  3255  3264  3282  3291  3309  3319  3328  3337  3347  3356  3356  3356  3356  3356  3356  3356  3356  3356  3356  3366  3385  3395  3405  3425  3434  3455  3475  3495  3506  3516  3527  3537  3527  3527  3516  3506  3495  3485  3475  3465  3444  3434  3425  3415  3405  3405  3395  3395  3395  3395  3405  3405  3415  3425  3415  3415  3425  3425  3425  3425  3425  3415  3415  3415  3415  3415  3415  3405  3395  3385  3385  3385  3385  3366  3366  3366  3356  3356  3356  3347  3347  3347  3337  3347  3328  3319  3300  3282  3264  3237  3219  3202  3185  3167  3151  3142  3134  3126  3126  3126  3126  3134  3142  3142  3151  3159  3167  3159  3167  3167  3176  3185  3185  3185  3176  3185  3185  3176  3167  3159  3151  3142  3126  3117  3101  3093  3077  3069  3053  3037  3029  3029  3022  3022  3014  3029  3045     0     0     0     0     0     0     0     0     0     0     0     0     0     0     0     0     0     0     0     0     0     0     0     0     0     0     0     0     0     0     0   888   890   892   894   896   898   898   898   896   893     0     0     0     0     0   841   834   829   826   823   820   818   816   814   813   811   810   808   807   806   805   804   803   802   802   802   801   800   800   800   800   800   800   801   802   802   803   803   804   805   805   806   807   808   809   809   810   812   813   814   816   818   819   821   823   824   825   826   827   826   826   826   824   824   823   822   822   822   823   824   824   826   827   829   830   832     0     0   837   837   839   839     0     0     0     0     0     0     0     0     0     0  6059  6059  6028  6028  5997  5967  5937  5878  5791  5735  5680  5626  5573  5521  5495  5470  5445  5445  5420  5420  5395  5395  5395  5370  5370  5346  5322  5322  5346  5346  5370  5370  5370  5370  5420  5420  5395  5395  5370  5370  5370  5370  5346  5346  5322  5322  5322  5322  5322  5322  5322  5298  5298  5298  5298  5298  5298  5322  5322  5346  5346  5370  5395  5395  5420  5420  5395  5395  5395  5395  5370  5346  5322  5298  5298  5298  5298  5274  5274  5274  5274  5274  5274  5274  5274  5251  5251  5251  5251  5228  5228  5205  5205  5205  5205  5205  5228  5228  5228  5228  5251  5228  5228  5228  5205  5205  5205  5182  5182  5182  5159  5159  5159  5159  5137  5137  5137  5137  5137  5137  5137  5115  5115  5115  5115  5115  5115  5115  5115  5115  5137  5137  5137  5159  5159  5159  5159  5159  5159  5137  5137  5159  5159  5159  5159  5182  5182  5182  5182  5182  5182  5182  5182  5182  5159  5137  5137  5115  5092  5092  5092  5071  5071  5071  5071  5092  5092  5092  5092  5092  5092  5071  5092  5092  5071  5071  5071  5071  5071  5071  5049  5027  5049  5027  5006  5006  4985  4985  4985  4985  5006  5006  5006  5006  5027  5027  5027  5006  5006  5006  4985  4985  4964  4943  4923  4902  4882  4882  4862  4862  4842  4842  4822  4822  4822  4842  4862  4862  4862  4862  4862
3202  3210  3210  3219  3228  3237  3246  3264  3273  3282  3291  3300  3309  3319  3337  3337  3337  3337  3347  3347  3356  3356  3347  3347  3347  3366  3376  3385  3395  3405  3425  3434  3444  3465  3475  3485  3495  3495  3495  3495  3485  3475  3475  3465  3455  3434  3415  3405  3395  3395  3376  3376  3366  3366  3366  3376  3376  3385  3395  3395  3405  3395  3395  3395  3405  3405  3405  3395  3385  3385  3395  3385  3385  3376  3366  3356  3356  3356  3356  3337  3337  3337  3328  3319  3328  3319  3319  3319  3328  3319  3319  3309  3300  3291  3273  3255  3237  3210  3193  3167  3159  3142  3134  3126  3126  3126  3126  3126  3134  3142  3151  3159  3159  3159  3159  3167  3176  3176  3176  3176  3167  3167  3167  3167  3159  3159  3142  3142  3126  3126  3109  3101  3085  3069  3061  3045  3037  3029  3022  3014  3014     0     0     0     0     0     0     0     0     0     0     0     0     0     0     0     0     0     0     0     0     0     0     0     0     0     0     0     0     0     0     0     0   882   884   886   888   890   892   894   894   894   892   890   887   882     0     0     0     0   835   829   826   823   821   818   816   815   813   811   810   809   808   806   805   805   804   803   803   803   802   802   801   801   801   801   801   802   802   803   803   804   804   805   806   806   807   808   809   810   811   812   813   815   816   818   819   820   822   823   823   824   823   823   822   821   820   819   818   817   817   817   817   818   818   819   819   821   823   826   828   830   831   832   834   835     0     0     0     0     0     0     0     0     0     0  6090  6059  6028  6028  5997  5967  5907  5849  5791  5735  5653  5599  5547  5495  5445  5420  5420  5395  5395  5370  5370  5370  5346  5346  5322  5298  5298  5298  5298  5346  5346  5346  5346  5370  5370  5370  5370  5370  5370  5346  5346  5346  5346  5322  5322  5322  5322  5322  5322  5322  5298  5298  5298  5298  5298  5298  5298  5322  5322  5322  5346  5346  5395  5395  5420  5420  5395  5420  5395  5395  5370  5346  5322  5322  5322  5322  5298  5298  5274  5274  5274  5298  5298  5298  5298  5274  5251  5251  5228  5228  5228  5205  5205  5205  5205  5205  5228  5228  5228  5228  5228  5228  5228  5205  5205  5182  5182  5182  5182  5159  5159  5159  5159  5159  5137  5137  5137  5137  5137  5137  5137  5115  5115  5115  5115  5115  5092  5092  5115  5115  5137  5137  5137  5159  5159  5159  5159  5159  5159  5137  5137  5159  5159  5159  5182  5182  5182  5182  5182  5182  5205  5205  5182  5159  5159  5137  5115  5115  5092  5092  5071  5071  5071  5071  5071  5071  5071  5071  5092  5092  5071  5092  5092  5071  5071  5092  5092  5092  5071  5071  5049  5049  5027  5006  5006  4985  4964  4964  4985  4985  4985  4985  5006  5006  5006  5006  5006  5006  5006  5006  4985  4985  4964  4943  4923  4902  4882  4862  4862  4842  4842  4842  4822  4822  4822  4842  4842  4842  4842  4842  4862
3202  3210  3210  3219  3228  3237  3237  3255  3264  3273  3282  3291  3300  3309  3319  3319  3328  3328  3337  3337  3347  3347  3347  3356  3356  3366  3366  3376  3376  3385  3395  3405  3425  3434  3444  3444  3455  3465  3455  3455  3444  3444  3444  3434  3434  3415  3395  3376  3376  3376  3366  3356  3347  3347  3356  3356  3366  3366  3376  3376  3376  3376  3376  3376  3376  3376  3376  3366  3356  3356  3356  3356  3356  3347  3337  3328  3328  3328  3328  3309  3309  3300  3300  3291  3291  3291  3291  3300  3309  3319  3319  3309  3309  3300  3282  3264  3246  3228  3202  3176  3159  3151  3142  3134  3126  3134  3126  3126  3142  3142  3151  3151  3159  3151  3159  3159  3167  3176  3167  3167  3159  3167  3167  3159  3159  3151  3142  3142  3134  3126  3117  3101  3093  3077  3069  3053  3045  3037  3029  3014     0     0     0     0     0     0     0     0     0     0     0     0     0     0     0     0     0     0     0     0     0     0     0     0     0     0     0     0     0     0     0     0   878   878   881   883   884   886   888   890   891   891   889   887   884   878   869     0     0     0   835   830   827   824   822   819   816   815   814   812   810   809   808   807   806   805   805   804   804   803   803   803   802   802   802   802   802   802   803   803   804   804   805   805   806   807   808   808   809   810   811   812   813   814   816   818   818   819   820   821   822   821   820   819   819   818   816   815   814   814   813   813   813   813   813   813   813   814   815   818   821   823   825   826   829   830     0   834   834   831     0     0     0     0     0     0  6090  6090  6028  5997  5967  5937  5907  5820  5763  5708  5626  5573  5521  5470  5420  5395  5370  5370  5346  5346  5322  5322  5298  5298  5298  5251  5251  5251  5274  5298  5322  5322  5322  5346  5370  5370  5370  5346  5322  5322  5322  5322  5322  5322  5322  5322  5322  5322  5298  5298  5298  5298  5298  5298  5298  5298  5298  5322  5322  5322  5346  5346  5370  5395  5395  5395  5395  5395  5395  5395  5370  5370  5322  5322  5322  5322  5322  5298  5298  5298  5298  5298  5298  5298  5298  5274  5274  5251  5228  5228  5228  5205  5205  5205  5205  5205  5228  5228  5228  5228  5228  5228  5205  5205  5205  5182  5182  5182  5182  5182  5159  5159  5159  5159  5159  5137  5137  5137  5137  5137  5137  5115  5115  5115  5092  5092  5092  5092  5092  5115  5137  5137  5137  5159  5159  5159  5159  5159  5159  5137  5137  5159  5159  5159  5182  5182  5182  5205  5205  5182  5159  5159  5159  5159  5137  5115  5092  5071  5071  5071  5071  5071  5049  5049  5049  5071  5071  5071  5071  5071  5071  5071  5071  5071  5071  5071  5071  5071  5049  5049  5049  5027  5006  5006  4985  4964  4964  4964  4964  4964  4985  5006  5006  5006  5006  5006  5006  5006  5006  5006  4985  4985  4964  4943  4923  4882  4862  4862  4842  4842  4842  4842  4822  4822  4822  4822  4842  4842     0     0     0
3202  3210  3210  3219  3228  3228  3237  3246  3255  3264  3273  3273  3282  3291  3300  3309  3309  3319  3328  3337  3347  3347  3356  3356  3356  3366  3366  3376  3376  3385  3385  3395  3405  3415  3425  3425  3425  3434  3434  3434  3434  3425  3425  3425  3415  3405  3385  3376  3366  3366  3356  3356  3356  3356  3366  3356  3366  3366  3366  3356  3356  3356  3347  3347  3347  3337  3337  3337  3337  3337  3337  3337  3337  3328  3319  3309  3309  3309  3300  3291  3291  3282  3273  3273  3264  3273  3273  3291  3291  3300  3319  3328  3328  3319  3300  3282  3264  3237  3210  3193  3167  3151  3142  3142  3134  3134  3134  3134  3142  3142  3151  3151  3159  3151  3159  3159  3167  3167  3159  3159  3159  3159  3159  3151  3151  3142  3142  3142  3134  3126  3117  3109  3093  3085  3069  3061  3045  3037  3029  3014     0     0     0     0     0     0     0     0     0     0     0     0     0     0     0     0     0     0     0     0     0     0     0     0     0     0     0     0     0     0     0     0     0   875   876   878   879   882   884   885   885   886   885   882   879   875   866   857     0     0   836   830   827   824   822   819   817   815   814   812   811   810   809   808   806   806   805   805   804   804   804   803   803   803   802   802   803   803   803   804   804   804   805   806   806   807   808   808   809   810   811   811   813   814   815   816   817   818   819   819   819   818   818   816   815   814   813   811   810   809   809   809   808   808   807   808   807   808   808   811   814   818   819   821   824   827   829   831   832   832   831     0     0     0     0     0     0  6090  6028  5997  5967  5907  5849  5791  5735  5653  5599  5547  5495  5420  5395  5370  5346  5322  5298  5274  5274  5251  5251  5228  5228  5205  5182  5205  5228  5251  5274  5274  5298  5322  5322  5322  5322  5322  5322  5298  5322  5322  5322  5322  5322  5322  5298  5298  5298  5298  5298  5298  5298  5298  5298  5298  5298  5322  5322  5322  5322  5346  5370  5370  5370  5370  5370  5370  5370  5370  5370  5346  5322  5322  5298  5298  5298  5298  5298  5298  5298  5298  5298  5298  5298  5274  5274  5251  5251  5228  5228  5228  5205  5205  5205  5228  5228  5228  5228  5228  5228  5228  5228  5205  5205  5205  5205  5205  5205  5182  5159  5159  5159  5159  5159  5137  5137  5137  5137  5137  5137  5115  5115  5092  5092  5092  5092  5092  5092  5092  5115  5137  5137  5137  5159  5159  5159  5159  5137  5137  5137  5159  5159  5159  5159  5182  5182  5182  5182  5182  5159  5159  5137  5115  5092  5092  5071  5071  5071  5049  5049  5049  5071  5049  5049  5071  5071  5071  5071  5071  5071  5092  5071  5071  5071  5071  5071  5071  5049  5049  5027  5006  5006  4985  4964  4943  4923  4923  4943  4943  4964  4985  4985  4985  5006  5006  5006  5006  5006  5006  4985  4964  4943  4923  4902  4882  4862  4842  4822  4822  4822  4822  4822  4822  4822  4822  4822  4822     0     0     0
3210  3210  3210  3219  3219  3228  3228  3237  3246  3255  3264  3264  3273  3273  3282  3291  3300  3309  3319  3328  3347  3347  3356  3356  3366  3366  3366  3376  3376  3376  3385  3385  3395  3405  3405  3405  3415  3425  3425  3425  3415  3415  3415  3405  3405  3395  3376  3366  3366  3356  3356  3356  3356  3356  3366  3366  3366  3366  3356  3347  3347  3337  3328  3328  3319  3319  3319  3319  3319  3309  3309  3309  3309  3300  3300  3300  3291  3291  3282  3282  3273  3264  3255  3255  3264  3264  3273  3291  3300  3309  3328  3347  3356  3347  3328  3300  3282  3255  3228  3202  3176  3159  3151  3142  3134  3134  3134  3134  3142  3142  3151  3151  3151  3151  3151  3159  3159  3167  3159  3159  3151  3151  3159  3151  3142  3142  3134  3142  3134  3126  3117  3109  3101  3085  3077  3069  3053  3045     0     0     0     0     0     0     0     0     0     0     0     0     0     0     0     0     0     0     0     0     0     0     0     0     0     0     0     0     0     0     0     0     0     0     0   868   869   871   873   875   877   878   879   879   878   876   874   870   863   856   848   841   836   831   827   824   822   819   817   815   813   812   810   810   809   808   807   806   805   805   805   804   804   804   804   803   803   803   803   803   804   804   804   805   805   806   807   808   808   808   809   809   810   811   811   813   813   814   816   816   816   816   816   815   814   813   811   810   808   807   806   805   805   804   803   803   803   803   803   803   805   806   810   813   815   818   821   824   827   829   831   831   832   833   836   836   837     0     0     0  6028  5967  5937  5878  5820  5763  5708  5626  5573  5495  5445  5395  5370  5322  5298  5274  5251  5228  5205  5182  5159  5159  5137  5115  5115  5115  5159  5182  5205  5228  5251  5274  5298  5298  5298  5298  5274  5274  5298  5298  5298  5322  5322  5298  5298  5298  5298  5298  5298  5298  5298  5298  5298  5298  5298  5322  5322  5322  5322  5322  5346  5346  5346  5346  5370  5346  5346  5346  5322  5322  5298  5274  5274  5274  5274  5274  5298  5298  5298  5298  5298  5298  5298  5298  5274  5274  5274  5251  5251  5251  5228  5228  5228  5228  5228  5228  5228  5228  5228  5228  5228  5205  5205  5205  5205  5205  5205  5205  5182  5182  5159  5159  5159  5159  5137  5137  5137  5137  5137  5115  5115  5092  5092  5092  5071  5071  5092  5092  5115  5115  5137  5137  5137  5159  5159  5137  5137  5137  5137  5137  5137  5159  5159  5182  5182  5182  5182  5182  5137  5137  5115  5092  5071  5071  5049  5049  5027  5049  5027  5027  5049  5027  5027  5049  5071  5071  5071  5071  5071  5092  5071  5071  5071  5071  5071  5071  5071  5049  5027  5006  5006  4964  4943  4943  4923  4923  4923  4923  4964  4964  4985  4985  4985  5006  5006  5006  5006  4985  4985  4964     0     0     0     0     0     0     0     0  4803  4822  4822  4822  4822  4822     0  4822     0     0     0
3210  3210  3210  3219  3219  3219  3228  3237  3237  3246  3255  3255  3255  3264  3273  3282  3291  3300  3319  3328  3337  3347  3356  3356  3366  3366  3376  3366  3376  3366  3376  3385  3395  3395  3395  3395  3395  3405  3405  3405  3405  3395  3395  3395  3385  3385  3366  3356  3356  3356  3356  3356  3356  3366  3376  3376  3376  3366  3356  3347  3337  3319  3309  3300  3300  3291  3291  3291  3291  3291  3291  3291  3291  3291  3282  3282  3282  3282  3282  3273  3273  3264  3255  3255  3255  3264  3282  3291  3309  3328  3347  3366  3385  3366  3347  3319  3291  3264  3237  3210  3185  3159  3151  3151  3142  3134  3142  3142  3142  3151  3151  3151  3159  3151  3159  3159  3159  3159  3159  3151  3151  3151  3142  3142  3142  3142  3134  3134  3126  3126  3117  3117  3101  3093  3077  3069  3061  3053     0     0     0     0     0     0     0     0     0     0     0     0     0     0     0     0     0     0     0     0     0     0     0     0     0     0     0     0     0     0     0     0     0     0   862   864   864   865   867   869   871   872   873   873   873   871   868   866   860   854   848   841   836   831   827   824   822   819   816   815   813   811   810   809   808   808   806   806   805   805   805   805   804   804   804   804   804   804   804   804   804   804   804   805   806   806   807   808   808   808   808   808   809   810   809   811   811   813   813   814   814   813   813   811   810   809   807   805   804   803   802   801   800   800   799   799   799   799   800   800   802   804   807   810   813   815   819   822   824   827   830   831   833   834   836   836   838   840     0     0     0     0  5937  5878  5791  5735  5653  5599  5547  5495  5445  5370  5346  5298  5251  5228  5205  5182  5137  5115  5092  5071  5049  5027  5027  5049  5071  5115  5137  5159  5182  5205  5228  5228  5228  5228  5228  5251  5251  5274  5298  5298  5298  5322  5298  5298  5298  5298  5298  5298  5298  5298  5298  5322  5298  5322  5322  5322  5322  5322  5322  5322  5322  5322  5322  5322  5322  5322  5322  5298  5274  5274  5274  5274  5274  5274  5274  5274  5298  5298  5298  5298  5298  5298  5298  5274  5274  5251  5251  5251  5251  5228  5228  5228  5228  5228  5228  5228  5228  5228  5228  5228  5228  5205  5205  5205  5205  5205  5205  5182  5182  5159  5159  5159  5159  5137  5137  5137  5137  5115  5092  5092  5092  5071  5071  5071  5071  5092  5092  5115  5115  5137  5137  5137  5137  5137  5137  5115  5115  5137  5137  5137  5159  5159  5159  5159  5159  5159  5137  5115  5115  5071  5071  5049  5027  5006  5006  5027  5027  5006  5027  5027  5049  5049  5049  5071  5071  5092  5092  5092  5092  5092  5092  5092  5092  5092  5071  5071  5049  5006  4985  4985  4943  4923  4923  4902  4923  4923  4943  4964  4964  4985  5006  5006  5006  5006  5006  4985     0     0     0     0     0     0     0     0     0     0     0     0     0     0     0     0     0     0     0     0     0
3210  3210  3210  3219  3219  3219  3228  3228  3237  3246  3255  3255  3255  3264  3273  3273  3291  3300  3309  3328  3337  3347  3356  3356  3366  3366  3366  3366  3366  3366  3366  3376  3376  3385  3376  3376  3376  3385  3395  3395  3385  3385  3385  3376  3376  3356  3347  3347  3347  3356  3356  3366  3366  3376  3395  3395  3395  3376  3366  3347  3328  3309  3300  3291  3282  3273  3273  3273  3273  3273  3273  3273  3273  3273  3273  3273  3264  3264  3273  3264  3255  3255  3246  3246  3255  3264  3282  3300  3319  3337  3366  3395  3395  3395  3366  3337  3300  3273  3246  3219  3185  3167  3159  3151  3151  3142  3142  3142  3151  3151  3151  3151  3159  3151  3151  3151  3159  3159  3151  3142  3142  3142  3142  3134  3126  3126  3126  3126  3126  3126  3109  3109  3101  3093  3085  3069  3069     0     0     0     0     0     0     0     0     0     0     0     0     0     0     0     0     0     0     0     0     0     0     0     0     0     0     0     0     0     0     0     0     0     0   860   860   859   860   860   861   863   864   866   866   866   866   864   863   860   856   851   846   841   836   831   827   824   821   819   816   814   813   811   810   809   808   807   806   805   805   805   805   804   804   804   804   804   804   804   804   804   804   804   805   805   806   806   807   808   808   808   808   808   808   808   808   808   808   808   808   808   808   808   806   805   804   803   802   800   799   798   797   797   796   796   796   796   796   796   797   798   800   802   804   808   810   814   818   820   823   826   829   830   833   834   836   837   838   840   841     0   845     0     0  5849  5763  5708  5626  5573  5521  5470  5420  5370  5322  5274  5228  5205  5159  5115  5092  5071  5027  5006  5006  4985  4964  4985  5006  5049  5071  5092  5115  5137  5159  5159  5159  5182  5182  5205  5228  5251  5274  5298  5322  5322  5322  5322  5322  5322  5298  5322  5322  5322  5322  5322  5322  5322  5322  5322  5298  5298  5298  5298  5298  5298  5298  5298  5298  5298  5274  5274  5274  5274  5274  5274  5274  5274  5274  5298  5298  5322  5322  5298  5298  5298  5298  5274  5274  5251  5251  5251  5251  5228  5228  5228  5228  5228  5228  5228  5228  5228  5228  5228  5228  5228  5228  5228  5205  5205  5205  5205  5205  5182  5159  5159  5159  5137  5137  5137  5115  5115  5092  5092  5092  5071  5071  5071  5071  5071  5092  5115  5115  5115  5115  5115  5115  5115  5115  5115  5115  5115  5137  5137  5137  5159  5159  5159  5159  5137  5115  5092  5071  5049  5027  5006  4985  4985  4985  4985  5006  4985  4985  5006  5006  5027  5049  5071  5071  5092  5092  5092  5115  5092  5092  5115  5115  5092  5092  5071  5049  5006  4985  4964  4943  4923  4923  4902  4902  4943  4943  4964  4964     0     0     0     0     0     0     0     0     0     0     0     0     0     0     0     0     0     0     0     0     0     0     0     0     0     0     0     0
3210  3210  3210  3219  3219  3219  3228  3228  3237  3246  3255  3255  3255  3264  3273  3273  3291  3300  3309  3328  3337  3347  3356  3356  3366  3366  3366  3366  3366  3366  3366  3366  3376  3376  3376  3376  3376  3376  3376  3376  3376  3366  3366  3356  3356  3347  3347  3347  3347  3366  3376  3385  3395  3415  3425  3425  3425  3405  3385  3366  3337  3319  3300  3282  3273  3264  3255  3255  3255  3255  3255  3255  3255  3255  3255  3255  3255  3255  3255  3255  3246  3237  3228  3228  3237  3264  3282  3300  3319  3347  3376  3405  3425  3405  3376  3347  3309  3282  3255  3219  3193  3176  3159  3151  3151  3142  3151  3142  3151  3151  3151  3151  3159  3151  3151  3159  3159  3151  3151  3142  3134  3134  3126  3126  3126  3117  3117  3117  3117  3117  3109  3101  3093  3093  3085  3077     0     0     0     0     0     0     0     0     0     0     0     0     0     0     0     0     0     0     0     0     0     0     0     0     0     0     0     0     0     0     0     0   861   859   859   857   856   855   856   856   856   858   859   860   860   860   859   858   857   854   851   847   843   839   835   831   827   824   820   818   816   814   812   810   809   808   806   805   805   805   804   804   803   804   804   803   803   804   803   803   803   804   804   804   804   805   805   806   806   807   807   806   807   806   806   805   804   804   804   804   803   803   802   801   800   799   799   798   797   795   795   793   793   793   793   792   792   793   793   794   795   797   799   800   803   806   810   813   816   820   823   826   828   831   833   834   836   837   839   840   841   841   843   844     0     0  5735  5680  5599  5547  5495  5445  5395  5346  5298  5251  5205  5182  5115  5092  5049  5027  4985  4964  4943  4923  4923  4923  4943  4985  5006  5027  5049  5049  5092  5092  5115  5137  5159  5182  5205  5228  5251  5298  5322  5322  5322  5322  5322  5322  5322  5322  5322  5322  5346  5346  5346  5322  5322  5322  5298  5274  5274  5274  5251  5274  5274  5274  5274  5274  5274  5274  5274  5274  5274  5274  5274  5274  5274  5298  5298  5322  5322  5322  5298  5298  5298  5274  5274  5274  5251  5251  5251  5228  5228  5228  5228  5228  5228  5228  5228  5228  5228  5228  5228  5228  5228  5228  5228  5228  5205  5205  5205  5182  5182  5159  5159  5137  5137  5137  5115  5092  5092  5092  5092  5071  5071  5071  5071  5071  5092  5092  5115  5115  5092  5115  5115  5115  5115  5115  5115  5115  5115  5137  5137  5137  5137  5159  5137  5137  5092  5071  5049  5049  5006  5006  4964  4964  4964  4964  4964  4964  4985     0     0     0     0     0     0     0     0     0     0     0     0  5071  5071  5071     0     0     0     0     0  4964  4943  4923  4902  4923  4923  4923     0     0     0     0     0     0     0     0     0     0     0     0     0     0     0     0     0     0     0     0     0     0     0     0     0     0     0     0     0     0     0
3210  3210  3210  3219  3219  3219  3228  3228  3237  3246  3255  3255  3255  3264  3273  3273  3291  3300  3309  3319  3337  3347  3356  3356  3366  3366  3366  3356  3356  3356  3356  3366  3366  3366  3366  3366  3356  3356  3356  3366  3356  3356  3347  3347  3347  3347  3347  3356  3366  3385  3395  3415  3434  3455  3465  3465  3455  3434  3415  3385  3356  3328  3300  3273  3264  3255  3255  3246  3246  3246  3246  3246  3246  3246  3246  3246  3246  3246  3246  3237  3237  3219  3219  3228  3237  3255  3273  3300  3319  3347  3385  3415  3425  3415  3385  3347  3319  3282  3255  3228  3193  3176  3159  3151  3151  3142  3142  3142  3142  3151  3151  3151  3151  3151  3151  3151  3151  3151  3142  3134  3134  3126  3126  3117  3117  3109  3109  3109  3101  3101  3101  3101  3085  3085  3077     0     0     0     0     0     0     0     0     0     0     0     0     0     0     0     0     0     0     0     0     0     0     0     0     0     0     0     0     0     0     0     0   861   859   857   856   855   853   852   851   852   852   854   854   855   854   854   854   853   852   851   848   845   841   837   834   830   826   823   820   817   815   813   811   809   808   806   805   804   803   803   802   802   802   803   803   803   803   803   803   803   803   803   803   804   804   805   805   806   806   806   806   806   806   805   804   803   801   800   799   799   798   797   796   796   795   794   793   793   792   791   790   790   789   789   790   790   790   791   792   792   794   796   798   800   803   806   809   813   816   819   823   826   829   831   833   834   836   837   839   840   841   841   842   842   842   841   840     0     0  5521  5495  5445  5370  5346  5298  5228  5182  5137  5092  5049  5006  4985  4923  4902  4882  4862  4862  4882  4882  4902  4923  4943  4985  4985  5006  5027  5049  5071  5092  5137  5159  5205  5228  5274  5298  5322  5322  5322  5322  5322  5298  5322  5322  5322  5346  5346  5322  5322  5322  5322  5298  5274  5274  5251  5251  5251  5274  5274  5274  5274  5274  5274  5274  5274  5274  5274  5274  5274  5274  5274  5274  5298  5298  5298  5298  5298  5298  5274  5274  5251  5251  5251  5251  5228  5228  5228  5251  5251  5251  5251  5251  5251  5251  5251  5251  5228  5251  5251  5251  5228  5228  5228  5228  5205  5182  5182  5182  5159  5137  5137  5115  5092  5092  5092  5092  5071  5071  5071  5071  5092  5092  5115  5115  5092  5092  5092  5115  5115  5115  5115  5115  5115  5115  5115  5137  5137  5137  5137  5137  5115  5071  5049  5049  5027  5006  4985  4943  4943  4943  4943  4943  4923  4943     0  4964     0     0     0     0     0     0     0     0     0     0     0     0     0     0     0     0     0     0     0     0     0     0     0     0     0     0     0     0     0     0     0     0     0     0     0     0     0     0     0     0     0     0     0     0     0     0     0     0     0     0     0     0     0     0     0     0
3202  3210  3210  3219  3219  3219  3228  3237  3237  3246  3255  3255  3255  3264  3273  3273  3291  3300  3309  3319  3337  3347  3347  3356  3366  3366  3356  3356  3356  3356  3356  3356  3356  3356  3356  3356  3356  3356  3356  3356  3347  3347  3347  3347  3347  3347  3356  3366  3385  3405  3434  3455  3485  3506  3516  3527  3506  3475  3444  3415  3376  3337  3309  3282  3273  3255  3255  3246  3246  3246  3246  3246  3246  3246  3246  3246  3246  3237  3237  3228  3228  3219  3219  3219  3237  3255  3282  3300  3328  3356  3395  3434  3444  3434  3395  3347  3319  3282  3255  3228  3193  3176  3159  3151  3142  3142  3142  3134  3142  3142  3142  3142  3142  3142  3142  3142  3142  3142  3134  3126  3126  3126  3126  3117  3109  3109  3109  3101  3101  3101  3093  3093  3085  3085  3077     0     0     0     0     0     0     0     0     0     0     0     0     0     0     0     0     0     0     0     0     0     0     0     0     0     0     0     0     0     0     0   862   859   857   855   854   852   850   849   848   848   848   849   850   851   850   849   849   848   848   846   844   841   837   835   831   828   824   822   819   816   813   811   809   808   805   804   803   802   800   800   799   800   800   800   801   801   802   803   802   802   802   802   803   803   804   804   805   805   805   805   805   804   804   803   801   799   798   796   795   793   793   791   791   790   789   789   789   789   788   787   787   786   786   786   787   787   788   789   790   792   793   795   798   800   803   805   809   812   815   819   822   826   829   831   833   834   836   837   839   839   840   840   841   840   840   839   837   836     0     0  5445  5395  5370  5322  5274  5228  5159  5115  5071  5006  4964  4923  4882  4862  4842  4822  4822  4822  4842  4862  4882  4902  4923  4923  4943  4943  4964  5006  5027  5071  5115  5159  5205  5251  5298  5322  5322  5322  5322  5322  5298  5298  5322  5322  5346  5346  5322  5322  5322  5322  5298  5274  5251  5251  5228  5251  5251  5251  5251  5251  5274  5274  5274  5274  5251  5251  5251  5251  5274  5274  5274  5274  5298  5298  5298  5298  5298  5274  5274  5274  5251  5274  5251  5228  5228  5251  5251  5251  5251  5251  5251  5251  5251  5251  5251  5251  5251  5251  5251  5251  5228  5228  5228  5205  5205  5182  5182  5159  5159  5137  5115  5092  5092  5092  5071  5071  5071  5071  5071  5092  5092  5115  5115  5092  5092  5115  5115  5115  5115  5115  5115  5115  5115  5137  5137  5137  5137  5137  5115  5092  5071  5049  5027  4985  4964  4943  4923  4923  4923  4943  4923  4923     0     0     0     0     0     0     0     0     0     0     0     0     0     0     0     0     0     0     0     0     0     0     0     0     0     0     0     0     0     0     0     0     0     0     0     0     0     0     0     0     0     0     0     0     0     0     0     0     0     0     0     0     0     0     0     0     0     0     0
3202  3210  3210  3219  3219  3228  3228  3237  3246  3246  3255  3255  3255  3264  3264  3273  3282  3300  3309  3319  3328  3337  3347  3347  3356  3356  3356  3356  3356  3356  3356  3356  3356  3356  3356  3356  3356  3347  3356  3356  3347  3347  3347  3337  3347  3356  3366  3385  3405  3434  3465  3495  3537  3559  3569  3569  3559  3516  3475  3444  3395  3356  3319  3282  3273  3255  3246  3246  3246  3246  3246  3246  3246  3246  3246  3246  3246  3237  3237  3228  3228  3219  3210  3219  3237  3255  3282  3309  3337  3366  3405  3434  3444  3425  3385  3347  3309  3282  3246  3219  3185  3167  3159  3151  3142  3134  3134  3134  3126  3134  3134  3134  3134  3134  3134  3134  3134  3134  3126  3126  3126  3126  3117  3117  3109  3109  3109  3109  3101  3093  3085  3085  3077  3085     0     0     0     0     0     0     0     0     0     0     0     0     0     0     0     0     0     0     0     0     0     0     0     0     0     0     0     0     0     0     0     0   857   854   852   851   850   848   847   845   844   844   844   845   845   845   845   844   844   843   843   841   839   837   834   831   829   825   822   819   816   814   811   809   808   805   804   802   800   798   797   797   796   796   797   798   798   799   800   801   801   802   801   802   802   803   803   804   804   805   805   804   804   803   803   801   799   797   794   792   790   788   787   786   785   785   784   783   784   784   783   783   783   783   783   783   785   786   787   788   790   791   792   795   797   799   802   805   808   811   815   819   822   825   829   830   833   834   836   837   838   839   839   839   840   840   839   837   836   833     0     0     0     0     0     0     0     0     0     0     0  4964  4943  4882  4842  4803  4783  4764  4764  4764  4783  4803  4803  4822  4842  4862  4862  4882  4902  4943  4985  5027  5049  5115  5182  5251  5298  5298  5298  5322  5322  5322  5298  5298  5322  5346  5346  5346  5322  5298  5322  5298  5274  5274  5251  5228  5205  5228  5251  5251  5251  5251  5251  5251  5251  5251  5251  5251  5251  5251  5251  5251  5274  5274  5274  5274  5298  5298  5298  5298  5298  5274  5274  5274  5251  5251  5251  5251  5251  5251  5251  5251  5251  5251  5251  5274  5274  5274  5251  5251  5251  5251  5251  5228  5228  5228  5205  5182  5182  5159  5159  5137  5115  5092  5092  5092  5071  5071  5071  5071  5071  5092  5092  5115  5092  5092  5092  5115  5115  5115  5115  5115  5115  5137  5137  5137  5137  5137  5137  5115  5115  5092  5071  5027  5006  4985  4964  4943  4902  4902  4902  4902  4902     0     0     0     0     0     0     0     0     0     0     0     0     0     0     0     0     0     0     0     0     0     0     0     0     0     0     0     0     0     0     0     0     0     0     0     0     0     0     0     0     0     0     0     0     0     0     0     0     0     0     0     0     0     0  1092  1091  1089  1088  1087  1084
3193  3202  3210  3210  3219  3228  3228  3237  3246  3255  3255  3255  3255  3264  3264  3273  3282  3291  3309  3319  3328  3337  3347  3347  3347  3347  3347  3347  3356  3356  3356  3356  3356  3366  3366  3356  3356  3356  3356  3366  3356  3347  3337  3337  3347  3366  3376  3395  3425  3455  3495  3537  3580  3602  3624  3613  3591  3559  3506  3465  3415  3366  3319  3282  3273  3255  3246  3246  3246  3246  3237  3237  3237  3237  3237  3246  3246  3237  3228  3219  3219  3210  3210  3219  3228  3246  3273  3300  3328  3356  3395  3415  3425  3405  3376  3328  3291  3264  3237  3210  3185  3167  3151  3142  3134  3126  3126  3126  3126  3126  3126  3126  3126  3126  3126  3126  3126  3117  3117  3117  3117  3117  3117  3117  3109  3109  3109  3101  3093  3093  3085  3077  3069     0     0     0     0     0     0     0     0     0     0     0     0     0     0     0     0     0     0     0     0     0     0     0     0     0     0     0     0     0     0     0     0     0   854   850   849   847   847   844   843   841   840   839   839   840   840   840   840   839   839   838   837   837   835   833   830   827   824   822   819   816   814   811   809   808   805   803   802   800   798   796   795   794   794   793   795   796   797   797   799   800   800   801   800   801   802   802   803   803   804   804   804   804   803   802   800   798   795   792   790   787   784   782   781   780   779   779   779   779   779   780   780   779   780   780   781   781   783   783   785   787   789   790   792   794   797   799   802   805   808   811   815   819   822   825   828   830   832   834   835   836   837   837   838   837   838   837   836   835   833   831   829   826   824   823   822   822   822   823   823     0     0     0     0  4842  4783  4745  4726  4726  4707  4707  4726  4745  4745  4764  4783  4803  4803  4822  4842  4882  4923  4964  5006  5071  5159  5228  5274  5298  5298  5298  5322  5298  5298  5298  5298  5322  5346  5346  5322  5298  5298  5298  5274  5251  5251  5228  5205  5228  5228  5251  5228  5228  5251  5251  5251  5251  5251  5251  5228  5228  5251  5251  5274  5274  5274  5274  5298  5298  5298  5298  5274  5274  5274  5251  5251  5228  5228  5228  5228  5251  5251  5251  5251  5274  5274  5274  5274  5274  5274  5251  5251  5251  5251  5228  5228  5228  5205  5182  5182  5159  5137  5137  5115  5092  5092  5092  5071  5071  5071  5071  5092  5092  5092  5115  5092  5092  5092  5092  5092  5115  5115  5115  5137  5137  5137  5137  5137  5137  5137  5137  5115  5071  5049  5027  5006  4985  4964  4943  4902     0  4882     0     0     0     0     0     0     0     0     0     0     0     0     0     0     0     0     0     0     0     0     0     0     0     0     0     0     0     0     0     0     0     0     0     0  1236  1235  1235  1233  1232     0     0  1229  1227     0     0     0  1217     0     0     0     0     0     0     0  1098  1096     0  1091  1089  1088  1087  1085
3193  3202  3202  3210  3219  3228  3228  3237  3246  3255  3255  3255  3255  3264  3273  3273  3282  3291  3309  3319  3328  3328  3337  3347  3347  3347  3347  3347  3347  3347  3356  3356  3356  3366  3366  3366  3366  3356  3366  3366  3366  3347  3337  3337  3347  3366  3385  3405  3434  3465  3516  3559  3602  3624  3646  3635  3613  3569  3527  3475  3425  3366  3319  3282  3264  3246  3246  3237  3237  3237  3237  3228  3228  3228  3228  3237  3237  3228  3228  3219  3210  3202  3202  3210  3219  3246  3264  3291  3319  3347  3366  3376     0  3366  3337  3300  3273  3246  3219  3202  3176  3159  3151  3142  3134  3126  3126  3126  3117  3117  3117  3109  3117  3117  3117  3117  3109  3109  3109  3109  3117  3117  3117  3117  3109  3109  3109  3101  3093  3093  3085  3077  3069     0     0     0     0     0     0     0     0     0     0     0     0     0     0     0     0     0     0     0     0     0     0     0     0     0     0     0     0     0     0     0     0     0     0     0   846   844   843   840   838   836   834   833   833   833   833   833   833   831   831   831   831   830   829   826   824   822   820   818   815   813   811   809   806   804   803   802   799   797   796   793   792   791   791   791   792     0   795     0     0   799   799   800   800   800   800   801   802   803   803   803   803   802   800   799   797   794   790   787   784   781   779   777   776   775   774   774   774   774   775   776   776   776   777   778   779   779   781   782   784   786   787   789   791   793   796   798   802   804   808   811   814   818   821   824   827   829   830   832   833   834   834   835   834   834   834   834   833   831   830   828   826   824   822   820   819   820   821   821   822   822   823     0     0     0  4745  4707  4688  4688  4688  4688  4688  4707  4707  4726  4726  4726  4745  4745  4764  4803  4842  4902  4943  5027  5115  5228  5251     0     0  5298  5322  5298  5298  5298  5298  5322  5346  5346  5322  5298  5298  5298  5274  5251  5251  5228  5205  5228  5228  5251  5251  5251  5251  5251  5251  5251  5251  5251  5251  5251  5251  5251  5274  5274  5274  5274  5298  5298  5298  5274  5274  5251  5251  5251  5228  5205  5205  5228  5228  5228  5251  5251  5251  5274  5274  5274  5274  5274  5274  5274  5251  5251  5228  5228  5228  5228  5205  5182  5159  5159  5137  5137  5115  5092  5092  5092  5092  5071  5092  5092  5092  5092  5115  5115  5092  5092  5115  5092  5092  5115  5115  5115  5137  5137  5137  5137  5137  5137  5137  5137  5115  5071  5049     0     0  5006  4985     0     0     0     0     0     0     0     0     0     0     0     0     0     0     0     0     0     0     0     0     0     0     0     0     0     0     0     0     0     0     0     0     0     0     0  1241  1238  1236  1235  1233  1233  1232  1232  1232  1231  1229  1227  1226  1223  1221  1218  1208     0     0     0     0     0     0  1101  1099  1094  1092  1090  1088  1087  1085
3185  3193  3202  3210  3219  3219  3228  3237  3246  3255  3255  3255  3255  3264  3273  3273  3282  3291  3309  3319  3319  3328  3328  3337  3347  3347  3347  3347  3347  3347  3356  3356  3376  3376  3385  3376  3376  3366  3376  3376  3366  3347  3337  3328  3347  3366  3385  3415  3444  3475  3527  3569  3613  3646  3658  3646  3613  3580  3527  3475  3425  3366  3319  3282  3264  3246  3237  3228  3228  3228  3228  3228  3228  3228  3228  3228  3228  3219  3210  3202  3202  3202  3193  3202  3210  3237  3255  3273  3300  3319  3337  3347  3347  3328  3309  3282  3255  3237  3210  3193  3176  3167  3151  3142  3134  3126  3126  3117  3117  3117  3109  3109  3101  3101  3101  3101  3101  3101  3101  3101  3109  3109  3109  3109  3101  3109  3101  3101  3093  3085  3085     0     0     0     0     0     0     0     0     0     0     0     0     0     0     0     0     0     0     0     0     0     0     0     0     0     0     0     0     0     0     0     0     0     0     0   847   845   841   839   837   835   833   830   828   827   826   826   826   826   826   825   824   824   824   823   823   821   819   816   815   813   811   810   808   806   804   803   801   799   797   795   793   791   789   789   789   788   790   791     0     0   796   797   797   798   798   799   799   800   800   801   801   802   800   799   797   795   792   789   786   782   779   777   775   773   772   771   771   771   771   772   772   773   774   774   775   777   778   778   780   781   783   785   786   788   790   792   795   798   800   803   806   810   813   816   819   822   824   826   828   830   830   831   831   831   831   830   830   829   827   826   824   823   822   820   819   819   818   818   819   819   819   819   820   821   821   821     0     0     0  4688  4688  4670  4670  4670  4688  4688  4688  4688  4688  4707  4726  4745  4803  4862  4902  4985  5092  5205     0     0     0  5298  5322  5298  5274  5298  5298  5322  5346  5346  5322  5298  5298  5298  5274  5251  5228  5205  5205  5228  5228  5251  5251  5251  5251  5251  5251  5251  5251  5251  5251  5251  5251  5251  5251  5251  5274  5274  5298  5298  5298  5274  5251  5251  5251  5228  5205  5182  5182  5205  5205  5228  5251  5251  5274  5274  5274  5274  5274  5274  5274  5274  5251  5251  5228  5228  5228  5228  5205  5182  5159  5159  5137  5137  5115  5092  5071  5071  5092  5092  5092  5092  5092  5115  5115  5115  5092  5092  5092  5092  5092  5092  5115  5115  5115  5137  5115  5115  5137  5137  5137  5137     0     0     0     0     0     0     0     0     0     0     0     0     0     0     0     0     0     0     0     0     0     0     0     0     0     0     0     0     0     0     0     0     0     0     0     0     0     0     0     0     0  1241  1240  1238  1235  1235  1233  1232  1232  1232  1232  1231  1229  1228  1226  1224  1222  1219  1211  1199  1189     0     0     0     0  1103  1100  1096  1093  1091  1089  1087  1086
3176  3185  3193  3202  3210  3219  3228  3237  3246  3255  3255  3255  3255  3264  3273  3273  3282  3291  3300  3319  3319  3328  3328  3337  3347  3347  3347  3347  3356  3356  3366  3376  3376  3385  3395  3385  3376  3376  3376  3376  3366  3347  3328  3328  3347  3356  3385  3415  3434  3475  3527  3569  3613  3646  3646  3635  3602  3559  3506  3465  3405  3356  3309  3282  3264  3246  3237  3237  3228  3228  3228  3228  3228  3228  3228  3228  3228  3219  3210  3202  3193  3193  3193  3193  3210  3228  3246  3264  3282  3309  3319  3319  3319  3309  3291  3273  3255  3228  3210  3193  3176  3167  3159  3151  3142  3134  3134  3126  3117  3109  3109  3101  3101  3101  3101  3093  3093  3093  3093  3093  3101  3101  3101  3101  3101  3093  3101  3085  3085  3077     0  3069     0     0     0     0     0     0     0     0     0     0     0     0     0     0     0     0     0     0     0     0     0     0     0     0     0     0     0     0     0     0     0     0   849   846   844   841   839   836   833   830   828   824   822   821   820   819   819   819   819   818   818   818   818   817   816   815   814   811   810   809   808   807   805   803   802   800   799   797   795   792   791   789   787   787   786   786   787     0     0     0     0   795   796   796   797   798   798   798   799   799   799   799   797   795   792   790   787   784   781   778   775   773   772   771   769   769   768   768   769   770   770   771   772   773   775   776   777   778   779   780   782   785   786   787   789   791   794   797   799   802   805   808   811   815   818   820   822   824   826   827   827   827   828   827   827   826   826   825   824   822   821   819   819   818   817   817   817   817   818   818   818   818   819   819   819   819   819   819     0     0     0  4670  4670  4670  4670  4670  4670  4651  4651  4670  4688  4707  4764     0     0     0  5049  5159     0     0     0     0     0     0     0     0  5298  5322  5322  5322  5298  5298  5298  5274  5251  5228  5228  5205  5182  5228  5228  5251  5251  5251  5251  5251  5251  5251  5251  5251  5251  5251  5251  5251  5251  5251  5251  5274  5274  5274  5274  5251  5251  5228  5228  5205  5205  5182  5182  5205  5205  5228  5251  5251  5274  5298  5298  5298  5274  5274  5274  5274  5251  5228  5228  5228  5228  5228  5205  5182  5182  5159  5137  5137  5115  5092  5092  5071  5092  5092  5092  5092  5115  5115  5115  5115  5092  5092  5092  5071  5071  5071  5092  5092  5115  5115  5115  5115  5115  5159  5159     0     0     0     0     0     0     0  2673  2667  2661  2655  2661  2637     0     0     0     0     0     0     0     0     0     0     0     0     0     0     0     0     0     0     0     0     0     0     0     0     0     0     0     0  1241  1241  1238  1236  1235  1233  1232  1232  1232  1232  1232  1231  1229  1229  1227  1226  1223  1222  1212     0     0     0  1145  1125  1112  1105  1103  1097  1093  1091  1089  1087  1086
3167  3176  3193  3193  3202  3210  3228  3237  3246  3246  3255  3255  3264  3264  3273  3273  3282  3282  3300  3309  3319  3319  3328  3337  3347  3347  3356  3356  3356  3366  3376  3376  3395  3395  3395  3395  3385  3376  3376  3376  3356  3347  3328  3328  3337  3356  3376  3405  3434  3475  3516  3559  3591  3613  3613  3602  3569  3537  3485  3444  3385  3347  3300  3282  3264  3246  3237  3237  3237  3237  3237  3237  3228  3228  3228  3228  3228  3219  3210  3202  3202  3193  3193  3193  3210  3228  3237  3255  3273  3291  3300  3309  3300  3300  3282  3264  3246  3237  3219  3202  3185  3176  3167  3159  3151  3142  3134  3134  3126  3117  3109  3101  3101  3101  3093  3093  3093  3093  3093  3093  3093  3093  3093  3093  3093  3093  3093  3085  3077  3077     0     0     0     0     0     0     0     0     0     0     0     0     0     0     0     0     0     0     0     0     0     0     0     0     0     0     0     0     0     0     0     0     0   849   846   844   841   838   835   833   829   826   823   820   817   815   814   814   813   813   813   813   813   812   812   811   811   810   808   807   806   805   804   803   802   800   798   797   796   795   792   790   788   787   786   785   784   783   785   785   786   788   790   792   793   793   794   794   794   795   795   794   793   793   791   789   786   783   781   778   776   773   772   770   769   769   768   767   767   768   768   769   770   771   772   773   774   775   776   777   778   780   781   783   785   786   787   789   792   795   798   800   803   806   809   813   815   817   819   820   822   823   824   824   824   824   824   823   822   821   820   819   818   817   816   815   815   815   816   816   815   816   816   816   818   818   818   818   818   818   817   816   816     0     0     0  4651  4651  4651  4651  4633  4633  4651  4670  4707     0     0     0     0     0     0     0     0     0     0     0     0     0     0     0     0     0     0  5274  5274  5274  5251  5228  5228  5205  5182  5205  5228  5251  5251  5251  5251  5251  5251  5251  5251  5251  5251  5251  5251  5251  5251  5251  5251  5251  5274  5274  5251  5251  5251  5228  5228  5228  5205  5205  5182  5205  5228  5228  5251  5274  5298  5298  5298  5298  5298  5298  5298  5274  5274  5251  5251  5251  5251  5228  5205  5205  5182  5159  5159  5137  5137  5092  5115  5115  5092  5092  5115  5115  5115  5115  5115  5115  5115  5092  5092  5071  5071  5071  5049  5071  5092  5092  5115  5115  5115  5137     0     0     0     0     0     0     0     0  2673  2667  2661  2661  2655  2637  2625     0     0     0     0     0     0     0     0     0     0     0     0     0     0     0     0     0     0     0     0     0     0     0     0     0     0     0  1241  1240  1237  1237  1235  1233  1233  1232  1232  1232  1233  1232  1231  1229  1228  1226  1223  1223  1213  1203     0     0  1149     0  1117  1109  1106  1100  1095  1092  1090  1088  1086
